ply
format ascii 1.0
element vertex 682
property float32 x
property float32 y
property float32 z
property uint8 red
property uint8 green
property uint8 blue
end_header
0.21563126146793365 -0.08719982206821442 0.8767208456993103 59 62 64
0.23238444328308105 -0.0868956446647644 0.8650888800621033 108 79 56
0.28223490715026855 -0.08383067697286606 0.8297033905982971 206 192 188
0.2861463725566864 -0.0830608531832695 0.8237825632095337 207 179 132
0.2980341613292694 -0.08415229618549347 0.8237998485565186 153 124 89
0.30491092801094055 -0.08509782701730728 0.82584547996521 62 43 26
0.31711187958717346 -0.08700063824653625 0.8328031897544861 168 192 222
0.5195395350456238 -0.10419531166553497 0.9951750040054321 117 84 51
0.5223486423492432 -0.10421182960271835 0.9947270750999451 67 42 21
0.5255165100097656 -0.1042666882276535 0.9951075911521912 66 49 41
0.5723644495010376 -0.0925743356347084 0.9297000169754028 154 171 197
0.5732861161231995 -0.09220883995294571 0.9226447939872742 38 35 29
-1.0247997045516968 -0.12965922057628632 1.227163553237915 38 24 17
-0.6956456899642944 -0.11440806835889816 1.1486835479736328 121 156 204
-0.6888710856437683 -0.11355797201395035 1.1437052488327026 153 178 211
-0.6815377473831177 -0.11283137649297714 1.1377798318862915 171 189 216
-0.6744186878204346 -0.11190053820610046 1.1322332620620728 187 172 170
-0.6301741600036621 -0.10706079006195068 1.1146330833435059 221 197 166
-0.6230040788650513 -0.10673198103904724 1.1140304803848267 82 57 27
-0.6128528118133545 -0.10642170161008835 1.1144554615020752 50 32 10
-0.4828747510910034 -0.11130665242671967 1.1781874895095825 171 155 139
-0.47414183616638184 -0.11181619018316269 1.1833791732788086 112 97 86
-0.47125664353370667 -0.1119920015335083 1.1851271390914917 137 123 112
-0.46252360939979553 -0.11255457252264023 1.190445065498352 111 97 86
-0.4536786377429962 -0.1130898967385292 1.1957385540008545 70 56 45
-0.44461682438850403 -0.11351516097784042 1.2008261680603027 57 42 32
-0.43518635630607605 -0.11388300359249115 1.205541729927063 64 50 41
-0.43199244141578674 -0.11397405713796616 1.2069480419158936 71 57 47
-0.4221467077732086 -0.11408540606498718 1.210693359375 165 144 123
-0.41196006536483765 -0.11418753117322922 1.2137556076049805 131 111 90
-0.40516114234924316 -0.11443672329187393 1.2160143852233887 47 32 19
-0.40171465277671814 -0.11470676958560944 1.2174949645996094 56 43 34
-0.39261722564697266 -0.11512011289596558 1.2243154048919678 99 88 79
-0.3629312813282013 -0.1188415065407753 1.2448362112045288 119 106 90
-0.24349741637706757 -0.11826720088720322 1.2544922828674316 156 139 112
-0.21231567859649658 -0.12069860845804214 1.2787353992462158 100 87 79
-0.20497149229049683 -0.12494068592786789 1.3021352291107178 128 115 106
-0.20151589810848236 -0.12587870657444 1.3096206188201904 52 39 30
-0.19469907879829407 -0.12773221731185913 1.3243687152862549 65 55 46
-0.1912800520658493 -0.128663569688797 1.3314685821533203 150 138 124
-0.18403485417366028 -0.13041172921657562 1.3450913429260254 205 188 167
-0.17633605003356934 -0.13188114762306213 1.3580634593963623 102 90 73
-0.1726073920726776 -0.13258866965770721 1.3638521432876587 125 112 99
-0.16892430186271667 -0.1331898719072342 1.3689908981323242 184 170 161
-0.16169199347496033 -0.134190633893013 1.377634882926941 75 64 55
-0.13493405282497406 -0.1374683529138565 1.4030067920684814 77 66 65
-0.12322992086410522 -0.13890418410301208 1.4138046503067017 117 105 97
-0.11157837510108948 -0.14026162028312683 1.424796223640442 73 61 55
-0.10373128950595856 -0.14111535251140594 1.4324073791503906 64 51 46
-0.09977760910987854 -0.1415204554796219 1.4362890720367432 58 47 41
-0.09184959530830383 -0.14237375557422638 1.4444540739059448 58 48 42
-0.08784661442041397 -0.14285962283611298 1.4488177299499512 65 56 49
-0.08382081240415573 -0.1433829814195633 1.4533783197402954 171 161 153
-0.07973958551883698 -0.1439775675535202 1.4582581520080566 71 55 45
-0.07143700122833252 -0.14535997807979584 1.4689931869506836 120 109 100
-0.06299865245819092 -0.1470799446105957 1.4811701774597168 51 45 45
-0.054456744343042374 -0.14907236397266388 1.4945528507232666 29 31 41
-0.05012398585677147 -0.1500847190618515 1.501599907875061 73 69 75
-0.045722391456365585 -0.1510971039533615 1.5087900161743164 205 204 210
-0.041211143136024475 -0.15213048458099365 1.5162014961242676 89 92 102
-0.031734611839056015 -0.1542261838912964 1.5316104888916016 166 184 206
0.21857194602489471 -0.08459486067295074 0.8778833150863647 82 77 80
0.21966452896595 -0.08367983996868134 0.8719603419303894 71 60 44
0.22655163705348969 -0.0837988629937172 0.866303026676178 184 151 107
0.23578524589538574 -0.08432245254516602 0.8668606281280518 101 69 47
0.26463788747787476 -0.08482253551483154 0.8735620975494385 183 214 244
0.2668278217315674 -0.08466049283742905 0.8724570274353027 181 213 239
0.27677762508392334 -0.0836925357580185 0.8626750111579895 197 202 209
0.2821638584136963 -0.08299307525157928 0.8515956997871399 232 220 194
0.285020112991333 -0.08102452009916306 0.829953134059906 243 225 175
0.29827743768692017 -0.08158407360315323 0.8253841996192932 168 134 100
0.30502498149871826 -0.08244799077510834 0.8270387649536133 86 62 43
0.3168988823890686 -0.08425018191337585 0.8329340219497681 66 79 101
-1.0200313329696655 -0.12459497898817062 1.2220818996429443 32 22 21
-0.7104058861732483 -0.11162126064300537 1.1520777940750122 100 146 209
-0.6953473091125488 -0.11013785749673843 1.1428850889205933 147 168 218
-0.6814960241317749 -0.10879641026258469 1.1322243213653564 150 149 145
-0.6680598258972168 -0.10702239722013474 1.122771978378296 153 129 103
-0.6516047120094299 -0.10465528815984726 1.1146652698516846 225 201 175
-0.6426317691802979 -0.1040431559085846 1.1129474639892578 213 189 163
-0.6316841840744019 -0.10333523899316788 1.1114423274993896 164 140 114
-0.6248410940170288 -0.10307932645082474 1.1110718250274658 120 94 69
-0.6149649620056152 -0.10283980518579483 1.1119015216827393 91 76 57
-0.6067680716514587 -0.10288657993078232 1.1155623197555542 84 69 50
-0.6042056679725647 -0.10295327752828598 1.1171067953109741 55 42 25
-0.5940553545951843 -0.10336955636739731 1.1239303350448608 148 135 119
-0.5914326906204224 -0.10349081456661224 1.1257376670837402 65 51 42
-0.5833877325057983 -0.10390520095825195 1.1309881210327148 56 42 33
-0.5749762058258057 -0.10435033589601517 1.1354992389678955 121 99 76
-0.5632234811782837 -0.10484394431114197 1.140105962753296 117 95 72
-0.5236130952835083 -0.10595621168613434 1.1545686721801758 87 70 60
-0.4531547427177429 -0.10933971405029297 1.1946121454238892 63 49 40
-0.434702068567276 -0.11013500392436981 1.2044273614883423 70 56 45
-0.40472090244293213 -0.11045090854167938 1.2148537635803223 79 62 52
-0.3944798409938812 -0.11121231317520142 1.219480037689209 72 58 47
-0.3881397545337677 -0.11224059015512466 1.2251709699630737 62 48 37
-0.381948322057724 -0.11332400143146515 1.2320868968963623 65 52 44
-0.37872907519340515 -0.1137920394539833 1.2354152202606201 48 35 27
-0.37226638197898865 -0.1145019605755806 1.2401740550994873 110 97 89
-0.3623093068599701 -0.11489558964967728 1.24324631690979 102 88 77
-0.3519495725631714 -0.1148625910282135 1.2445461750030518 186 166 141
-0.34457990527153015 -0.11466986685991287 1.2449781894683838 221 201 176
-0.34067168831825256 -0.1145365983247757 1.2451672554016113 159 139 114
-0.3328571915626526 -0.114280104637146 1.2454347610473633 162 144 122
-0.3212287724018097 -0.11401353776454926 1.245883822441101 190 168 144
-0.31363874673843384 -0.11394093930721283 1.2462644577026367 202 180 156
-0.30247727036476135 -0.11393074691295624 1.2469338178634644 132 112 88
-0.29136431217193604 -0.11390120536088943 1.2477080821990967 147 127 103
-0.2839301824569702 -0.11390245705842972 1.2483199834823608 188 166 142
-0.2728497087955475 -0.11396113783121109 1.2494410276412964 77 55 31
-0.2617209851741791 -0.11387286335229874 1.2507565021514893 131 109 85
-0.2543226182460785 -0.11384975910186768 1.2515710592269897 219 195 171
-0.24305640161037445 -0.11399385333061218 1.2529207468032837 141 117 91
-0.23181916773319244 -0.11446642130613327 1.2547461986541748 76 52 24
-0.22819431126117706 -0.11456138640642166 1.2557505369186401 222 198 170
-0.22461766004562378 -0.11467476189136505 1.257104516029358 146 134 110
-0.21405021846294403 -0.11525604873895645 1.2640355825424194 58 44 33
-0.21055631339550018 -0.11558673530817032 1.2677483558654785 93 80 71
-0.20375274121761322 -0.11632994562387466 1.2768319845199585 36 23 14
-0.19321055710315704 -0.12202179431915283 1.3114137649536133 72 59 50
-0.19001953303813934 -0.1230335682630539 1.3198771476745605 166 154 140
-0.18670544028282166 -0.12405098229646683 1.328291893005371 210 199 177
-0.18311095237731934 -0.12509118020534515 1.3365036249160767 179 169 144
-0.16422927379608154 -0.12892691791057587 1.3687949180603027 89 81 70
-0.15342029929161072 -0.13027219474315643 1.3798191547393799 48 40 29
-0.14580069482326508 -0.13115859031677246 1.3868862390518188 58 50 47
-0.141912043094635 -0.13163308799266815 1.3904109001159668 52 44 41
-0.1341109424829483 -0.13264350593090057 1.397398829460144 72 64 60
-0.12242042273283005 -0.13414062559604645 1.407705307006836 121 110 104
-0.11466868221759796 -0.13505865633487701 1.4147026538848877 67 57 55
-0.0748913437128067 -0.13932734727859497 1.4545323848724365 65 53 41
-0.07072906941175461 -0.13994795083999634 1.4596723318099976 54 42 30
-0.06653102487325668 -0.14065511524677277 1.4651492834091187 51 39 26
-0.062320269644260406 -0.14143851399421692 1.4709237813949585 52 42 33
-0.05808500945568085 -0.14230014383792877 1.4769818782806396 69 58 54
-0.053820881992578506 -0.14319846034049988 1.4832615852355957 56 44 46
-0.04952234402298927 -0.1441127359867096 1.489802598953247 43 30 37
-0.04070848599076271 -0.14597679674625397 1.503530502319336 52 50 53
-0.03612109273672104 -0.14691510796546936 1.5107042789459229 97 95 98
-0.03133485093712807 -0.1478768140077591 1.5182143449783325 83 81 84
-0.021524233743548393 -0.14970454573631287 1.5329816341400146 93 102 121
0.24732592701911926 -0.08256234228610992 0.8742519021034241 40 32 28
0.2504822015762329 -0.08243534713983536 0.8762356638908386 224 226 229
0.25565117597579956 -0.08255084604024887 0.8765705823898315 196 190 188
0.2717657685279846 -0.08132022619247437 0.8640045523643494 239 225 194
0.28277814388275146 -0.07959349453449249 0.8422202467918396 255 227 190
0.3209150433540344 -0.08204711228609085 0.8359823226928711 126 127 139
0.5136500597000122 -0.09818480163812637 0.9957308173179626 170 139 96
0.5741837024688721 -0.0859479233622551 0.9138600826263428 234 202 152
-1.0116783380508423 -0.12197936326265335 1.2284528017044067 32 22 21
-0.7156797647476196 -0.10770091414451599 1.150261402130127 95 134 198
-0.7060426473617554 -0.10709931701421738 1.14439058303833 109 145 195
-0.6882269382476807 -0.1055237352848053 1.1321799755096436 164 161 179
-0.6811729669570923 -0.10472382605075836 1.1264663934707642 162 154 148
-0.67458575963974 -0.10386910289525986 1.121544361114502 146 127 106
-0.66162109375 -0.10111996531486511 1.1138722896575928 98 74 48
-0.5537067651748657 -0.10155046731233597 1.142318606376648 138 113 91
-0.5443981885910034 -0.10177328437566757 1.1450459957122803 143 119 97
-0.5320724248886108 -0.10204923152923584 1.1490918397903442 128 106 82
-0.5232170820236206 -0.10233242064714432 1.1536386013031006 92 74 65
-0.520376443862915 -0.10243523865938187 1.1555052995681763 79 62 52
-0.5147279500961304 -0.102668896317482 1.1592857837677002 73 59 50
-0.5030953288078308 -0.10307006537914276 1.1657869815826416 90 73 65
-0.4940168261528015 -0.10333246737718582 1.1699634790420532 100 84 64
-0.4849347770214081 -0.10369785130023956 1.1744399070739746 148 128 104
-0.4819549322128296 -0.10383511334657669 1.176011562347412 175 155 131
-0.47312161326408386 -0.10430102050304413 1.1810330152511597 52 36 23
-0.46435704827308655 -0.10486377775669098 1.186322569847107 93 79 66
-0.3843003809452057 -0.10825389623641968 1.2246557474136353 47 33 22
-0.37468355894088745 -0.10964812338352203 1.2338943481445312 54 41 32
-0.3325212299823761 -0.11059271544218063 1.2447980642318726 126 108 86
-0.22386354207992554 -0.11031530052423477 1.2537204027175903 186 170 143
-0.21298548579216003 -0.11061570048332214 1.2576019763946533 145 127 113
-0.20220330357551575 -0.11133156716823578 1.2666233777999878 77 64 55
-0.19558751583099365 -0.11173209547996521 1.2761402130126953 52 39 30
-0.1916554719209671 -0.11641082912683487 1.2973154783248901 58 45 36
-0.18208278715610504 -0.11967450380325317 1.3259085416793823 35 23 10
-0.1784503161907196 -0.1207856610417366 1.33585524559021 87 78 70
-0.17451335489749908 -0.12187553197145462 1.3449300527572632 48 39 31
-0.17061865329742432 -0.12294546514749527 1.3525238037109375 56 47 39
-0.16681687533855438 -0.12373780459165573 1.358892560005188 63 54 45
-0.16303449869155884 -0.12429244071245193 1.364008903503418 63 54 47
-0.15951496362686157 -0.12477811425924301 1.3679897785186768 61 52 46
-0.15247605741024017 -0.1256171315908432 1.3749984502792358 58 49 43
-0.14495675265789032 -0.12644816935062408 1.38169527053833 57 49 45
-0.13334929943084717 -0.12786762416362762 1.391822338104248 61 54 50
-0.12169713526964188 -0.1292925328016281 1.4016157388687134 114 103 97
-0.11395986378192902 -0.1301780343055725 1.4081741571426392 77 66 65
-0.10619986057281494 -0.13101410865783691 1.4150192737579346 74 64 62
-0.102293960750103 -0.13140065968036652 1.4185876846313477 78 68 66
-0.09440374374389648 -0.1321093589067459 1.4259260892868042 79 68 62
-0.08239421248435974 -0.13323438167572021 1.4374427795410156 79 69 61
-0.0742286890745163 -0.13417132198810577 1.4462426900863647 111 99 87
-0.061683814972639084 -0.1359928399324417 1.4614369869232178 133 123 111
-0.0531952790915966 -0.1374988704919815 1.4727461338043213 51 40 37
-0.04456207901239395 -0.13908638060092926 1.4849555492401123 61 52 54
-0.040144212543964386 -0.13991282880306244 1.4914541244506836 61 54 54
-0.03560212627053261 -0.1407446414232254 1.498203992843628 56 50 49
-0.03090839460492134 -0.14158698916435242 1.505279779434204 78 72 71
-0.021149756386876106 -0.1433437019586563 1.5202012062072754 97 89 94
-0.016163023188710213 -0.14420194923877716 1.5278310775756836 86 77 83
-0.011137431487441063 -0.14502733945846558 1.535352110862732 79 70 76
0.28544846177101135 -0.07695473730564117 0.8413752913475037 228 204 166
0.325030118227005 -0.07977347820997238 0.8392240405082703 137 140 149
0.5130478739738464 -0.09508287161588669 0.9947364330291748 114 91 60
0.5661753416061401 -0.08441036939620972 0.9308367371559143 155 190 226
0.5677708983421326 -0.08390697091817856 0.9234521985054016 188 207 230
0.5716216564178467 -0.08313430845737457 0.9146803617477417 249 224 161
0.5769100785255432 -0.08296452462673187 0.9112250208854675 147 115 78
0.5877643823623657 -0.08273039758205414 0.9099125862121582 88 96 122
0.5966305732727051 -0.08311887830495834 0.9132444858551025 61 68 86
-1.0113123655319214 -0.11508374661207199 1.2150321006774902 33 23 22
-1.0044080018997192 -0.11754783242940903 1.2281405925750732 30 20 19
-0.9981961250305176 -0.11918944865465164 1.2379977703094482 28 19 22
-0.7168862819671631 -0.1035117655992508 1.147017002105713 123 158 213
-0.7112601399421692 -0.1032552570104599 1.1426801681518555 136 162 207
-0.7000048160552979 -0.10261788219213486 1.1351374387741089 99 110 134
-0.6941132545471191 -0.10211441665887833 1.1312127113342285 67 70 81
-0.680633544921875 -0.10056215524673462 1.120430588722229 137 120 112
-0.6691981554031372 -0.09721259772777557 1.1101852655410767 212 192 166
-0.6346253156661987 -0.0959397554397583 1.1048707962036133 141 117 91
-0.574512779712677 -0.0973799005150795 1.1346685886383057 178 156 132
-0.5439965724945068 -0.09819027036428452 1.1442756652832031 203 178 156
-0.45498397946357727 -0.10163618624210358 1.1904819011688232 95 80 67
-0.44608062505722046 -0.10212817043066025 1.1957417726516724 72 58 49
-0.4430314600467682 -0.10226783901453018 1.1974332332611084 74 60 51
-0.433674693107605 -0.10262896120548248 1.2022368907928467 75 61 50
-0.4272920787334442 -0.1028316468000412 1.2052172422409058 79 63 50
-0.4240429401397705 -0.10290371626615524 1.2065839767456055 126 101 78
-0.4140685200691223 -0.10295207798480988 1.2100167274475098 158 134 110
-0.40383222699165344 -0.10287728905677795 1.212904453277588 83 66 56
-0.39698952436447144 -0.10292914509773254 1.2150752544403076 83 69 60
-0.39363327622413635 -0.10304104536771774 1.2164064645767212 67 53 42
-0.38374680280685425 -0.10380370914936066 1.221766471862793 48 34 23
-0.37715575098991394 -0.10463568568229675 1.2266767024993896 52 39 31
-0.32446467876434326 -0.10670839250087738 1.2446531057357788 191 173 151
-0.21214734017848969 -0.10623160004615784 1.2535159587860107 123 100 82
-0.20469294488430023 -0.10646969825029373 1.2566312551498413 94 81 72
-0.1940270960330963 -0.10696959495544434 1.2655655145645142 148 135 125
-0.183810293674469 -0.11308322846889496 1.3009015321731567 22 8 5
-0.1804954707622528 -0.11420722305774689 1.311326026916504 36 23 22
-0.1769276261329651 -0.11540184915065765 1.3225586414337158 27 17 16
-0.1731993705034256 -0.11670483648777008 1.3340048789978027 34 24 22
-0.1549026072025299 -0.12054698169231415 1.3669064044952393 36 26 25
-0.14409443736076355 -0.12181495875120163 1.3771424293518066 53 45 42
-0.1326119601726532 -0.12313926964998245 1.3865013122558594 57 49 45
-0.12489649653434753 -0.12400142103433609 1.3926020860671997 65 54 48
-0.12102826684713364 -0.12440742552280426 1.3957079648971558 72 62 56
-0.11332203447818756 -0.12521226704120636 1.401715874671936 70 60 58
-0.10165756940841675 -0.12640909850597382 1.4115773439407349 72 62 60
-0.09376752376556396 -0.12713707983493805 1.4187884330749512 75 64 58
-0.08177606016397476 -0.12824296951293945 1.4299947023391724 109 98 90
-0.07360589504241943 -0.1290983259677887 1.4383234977722168 83 72 60
-0.06107758730649948 -0.1306789517402649 1.4523861408233643 126 118 99
-0.056835100054740906 -0.1313016265630722 1.4574666023254395 59 50 35
-0.05256103351712227 -0.13193240761756897 1.4627175331115723 38 28 18
-0.04825139790773392 -0.13258567452430725 1.4682185649871826 41 30 26
-0.04389609396457672 -0.1332455277442932 1.473908543586731 54 44 41
-0.039493389427661896 -0.13393832743167877 1.4798924922943115 64 53 49
-0.03499116003513336 -0.13465510308742523 1.4861801862716675 75 63 60
-0.030373765155673027 -0.13539332151412964 1.492828607559204 71 59 56
-0.025609321892261505 -0.13620047271251678 1.5000364780426025 58 47 44
-0.020769312977790833 -0.13705702126026154 1.50765860080719 89 75 75
-0.0005829971050843596 -0.14050881564617157 1.539947509765625 99 84 77
0.22620448470115662 -0.07562945783138275 0.8772279620170593 115 98 78
0.2843170464038849 -0.07496220618486404 0.8487004637718201 214 196 156
0.2864513695240021 -0.07479817420244217 0.8452107906341553 200 182 142
0.2884887158870697 -0.07463787496089935 0.8415672779083252 214 196 156
0.292209655046463 -0.07418753951787949 0.8349590301513672 197 175 135
0.2969209551811218 -0.07396961748600006 0.8318325877189636 205 175 131
0.3060384690761566 -0.07452094554901123 0.8317447900772095 138 103 64
0.507011353969574 -0.09189431369304657 0.9952883124351501 175 152 108
0.5095210075378418 -0.0918903797864914 0.9942105412483215 135 110 78
0.5162467956542969 -0.0921245664358139 0.9947280287742615 107 104 98
0.5645467042922974 -0.08150478452444077 0.928673267364502 218 217 223
-1.0071337223052979 -0.11030100286006927 1.2119770050048828 33 23 22
-1.0042593479156494 -0.11211973428726196 1.221248984336853 33 23 22
-0.998070240020752 -0.11342253535985947 1.2277555465698242 30 20 19
-0.994252622127533 -0.1145867258310318 1.2336852550506592 28 19 22
-0.9922739863395691 -0.11515013873577118 1.236463189125061 29 20 23
-0.726323127746582 -0.10028926283121109 1.1504868268966675 154 188 226
-0.7181515693664551 -0.0995778888463974 1.1433688402175903 155 190 227
-0.7052713632583618 -0.09861256927251816 1.133344054222107 185 198 224
-0.69871985912323 -0.09836520999670029 1.1285536289215088 110 106 119
-0.6921864748001099 -0.09786413609981537 1.1238523721694946 119 105 104
-0.6795397996902466 -0.09638554602861404 1.1137166023254395 104 78 57
-0.6679190397262573 -0.09271511435508728 1.102688193321228 168 150 132
-0.6640207767486572 -0.09245394170284271 1.1022440195083618 166 145 116
-0.6527669429779053 -0.09297938644886017 1.1014208793640137 161 137 111
-0.642310619354248 -0.09234318137168884 1.1011736392974854 170 146 120
-0.6326756477355957 -0.09211596846580505 1.1012393236160278 189 165 139
-0.6237556338310242 -0.09205220639705658 1.1030091047286987 86 73 57
-0.6184788942337036 -0.09200816601514816 1.1056548357009888 59 46 30
-0.6136525273323059 -0.09214191883802414 1.1092307567596436 58 40 36
-0.6039415597915649 -0.09258769452571869 1.1168583631515503 61 46 42
-0.5938866138458252 -0.0930066853761673 1.1239861249923706 62 47 42
-0.5912246704101562 -0.09312484413385391 1.1256407499313354 55 41 32
-0.5828931331634521 -0.09352570027112961 1.1302075386047363 65 50 42
-0.5742143392562866 -0.09389163553714752 1.134108066558838 180 158 134
-0.5712607502937317 -0.09399131685495377 1.135257363319397 195 169 142
-0.5622453093528748 -0.09423103928565979 1.1382644176483154 133 111 88
-0.5529714822769165 -0.09444793313741684 1.1409103870391846 146 121 99
-0.5436214804649353 -0.09461833536624908 1.1434954404830933 117 92 70
-0.5374094843864441 -0.09471333026885986 1.1453063488006592 189 167 143
-0.5343170762062073 -0.09477850049734116 1.1462796926498413 145 122 99
-0.5023807287216187 -0.09577741473913193 1.1642637252807617 78 61 53
-0.4631641209125519 -0.09729624539613724 1.183698296546936 67 53 40
-0.3732095956802368 -0.10062053054571152 1.2259550094604492 51 38 31
-0.36334919929504395 -0.10185634344816208 1.2337446212768555 101 87 76
-0.36009711027145386 -0.10223227739334106 1.236029863357544 110 96 85
-0.3535950779914856 -0.10277298837900162 1.2390697002410889 95 77 55
-0.34321993589401245 -0.10304167866706848 1.2413641214370728 191 171 147
-0.33171916007995605 -0.10295205563306808 1.2429827451705933 123 105 83
-0.3240688443183899 -0.10288794338703156 1.2437973022460938 191 173 151
-0.3128247559070587 -0.10283470153808594 1.244757056236267 119 97 73
-0.3091268241405487 -0.10282281786203384 1.2450189590454102 162 140 116
-0.3017558455467224 -0.1027790978550911 1.2454766035079956 152 132 108
-0.2943876385688782 -0.1027025654911995 1.245862364768982 169 149 125
-0.2833002805709839 -0.10259292274713516 1.2465728521347046 208 186 162
-0.27217763662338257 -0.10257143527269363 1.2474563121795654 121 99 75
-0.2646879553794861 -0.10255292803049088 1.248051404953003 174 152 128
-0.25336652994155884 -0.10245101153850555 1.2487794160842896 109 85 61
-0.2419091910123825 -0.10233544558286667 1.249462604522705 189 165 139
-0.2343026101589203 -0.10223379731178284 1.2496825456619263 192 168 140
-0.2230314314365387 -0.10196483135223389 1.250312089920044 157 133 99
-0.21147669851779938 -0.10210207104682922 1.2510639429092407 213 186 165
-0.20387263596057892 -0.10217353701591492 1.2526741027832031 69 56 47
-0.19645756483078003 -0.10230615735054016 1.2554724216461182 90 77 68
-0.1928120106458664 -0.10240450501441956 1.2575761079788208 95 82 72
-0.1822081059217453 -0.10291833430528641 1.2665715217590332 38 23 27
-0.17482440173625946 -0.10961742699146271 1.3034381866455078 19 9 10
-0.17121897637844086 -0.1107824295759201 1.3152018785476685 32 22 22
-0.16749383509159088 -0.11217387765645981 1.3273682594299316 47 37 38
-0.16403429210186005 -0.1133745014667511 1.3382230997085571 56 46 46
-0.1608203649520874 -0.11420533061027527 1.347334384918213 58 47 51
-0.15755222737789154 -0.11503059417009354 1.3539443016052246 68 57 61
-0.15399938821792603 -0.115585096180439 1.3595131635665894 51 40 43
-0.1428762674331665 -0.11708763986825943 1.3719072341918945 58 50 47
-0.13174034655094147 -0.11844837665557861 1.381286382675171 62 54 50
-0.11265827715396881 -0.12018071115016937 1.3955893516540527 75 65 63
-0.10496880114078522 -0.12092927098274231 1.4015775918960571 67 57 55
-0.09713499248027802 -0.12169142812490463 1.4082324504852295 80 69 65
-0.09316784143447876 -0.12206373363733292 1.4117109775543213 74 63 57
-0.08918732404708862 -0.12242748588323593 1.415238618850708 66 55 49
-0.081191785633564 -0.12318281829357147 1.4225965738296509 69 58 51
-0.0771433487534523 -0.12357435375452042 1.4265292882919312 71 59 47
-0.07305614650249481 -0.12398312985897064 1.4305907487869263 74 62 50
-0.06473177671432495 -0.12486688792705536 1.4390772581100464 107 95 84
-0.060540709644556046 -0.12535510957241058 1.4435588121414185 144 136 114
-0.05203024297952652 -0.12639176845550537 1.453078269958496 87 77 65
-0.04335559532046318 -0.12748944759368896 1.4634342193603516 111 98 92
-0.034499991685152054 -0.12870526313781738 1.47481107711792 57 42 35
-0.02996312640607357 -0.1293543577194214 1.4810259342193604 61 46 40
-0.020531650632619858 -0.13091403245925903 1.4955227375030518 46 36 40
-0.010575245134532452 -0.13277782499790192 1.5125164985656738 41 30 36
-0.00544273154810071 -0.13378779590129852 1.5216917991638184 15 5 9
-0.00034990135463885963 -0.13473504781723022 1.5304934978485107 14 0 0
0.009598379023373127 -0.1363508552312851 1.5446720123291016 91 56 55
0.2269522249698639 -0.07274026423692703 0.8806043267250061 124 115 96
0.23366141319274902 -0.07258348166942596 0.8735061287879944 190 159 117
0.23636028170585632 -0.07266448438167572 0.8725801706314087 180 142 97
0.24542859196662903 -0.07317451387643814 0.8726910948753357 253 221 171
0.2567066550254822 -0.07360591739416122 0.872642993927002 230 203 148
0.26586097478866577 -0.07335420697927475 0.8675855994224548 227 201 148
0.27017199993133545 -0.07322366535663605 0.864629864692688 229 200 162
0.27664560079574585 -0.07297656685113907 0.8604432344436646 182 164 131
0.2957698702812195 -0.07190406322479248 0.8368415236473083 138 112 85
0.31313952803611755 -0.0725383311510086 0.8351013660430908 137 106 77
0.31681114435195923 -0.07299590110778809 0.8363871574401855 99 72 45
0.32899177074432373 -0.07461141794919968 0.8430395126342773 55 52 45
0.5037076473236084 -0.08865583688020706 0.9953622817993164 204 189 140
0.5641051530838013 -0.07830517739057541 0.9230628609657288 236 224 205
-1.0033046007156372 -0.10568714886903763 1.208902359008789 38 24 23
-0.9941208958625793 -0.10878603905439377 1.2236820459365845 35 21 20
-0.9838069677352905 -0.11160212755203247 1.2364997863769531 33 23 22
-0.973018229007721 -0.11331503093242645 1.2464969158172607 27 20 21
-0.742123544216156 -0.09812324494123459 1.1640950441360474 156 183 228
-0.710943877696991 -0.09447762370109558 1.130942940711975 156 169 188
-0.7037999033927917 -0.09405520558357239 1.1254359483718872 169 178 183
-0.696863055229187 -0.09379327297210693 1.1201368570327759 166 165 156
-0.6899058818817139 -0.09335989505052567 1.11490797996521 152 141 128
-0.6758211851119995 -0.0891905352473259 1.0993294715881348 154 138 119
-0.6623594760894775 -0.0881170853972435 1.094462275505066 204 183 153
-0.5249624252319336 -0.0914522334933281 1.149222493171692 67 53 44
-0.513678252696991 -0.09185966849327087 1.1567530632019043 77 64 55
-0.5020182728767395 -0.0921633169054985 1.1635056734085083 77 60 53
-0.4959205687046051 -0.0923299640417099 1.1660881042480469 99 83 68
-0.49283844232559204 -0.0924074649810791 1.1673526763916016 138 123 104
-0.48355209827423096 -0.09265623986721039 1.1712212562561035 163 137 110
-0.47446468472480774 -0.09294353425502777 1.1755143404006958 118 100 79
-0.4625548720359802 -0.09349515289068222 1.182286024093628 68 52 39
-0.4566841423511505 -0.09383684396743774 1.1859649419784546 91 75 62
-0.45377978682518005 -0.09401164203882217 1.1878259181976318 119 103 90
-0.4449126720428467 -0.09446117281913757 1.193222999572754 89 75 66
-0.43880653381347656 -0.09471980482339859 1.1966209411621094 70 56 47
-0.4325835704803467 -0.0949782282114029 1.199884057044983 70 56 47
-0.42303869128227234 -0.09528955072164536 1.2044485807418823 151 133 113
-0.39283227920532227 -0.09541317820549011 1.2144440412521362 79 65 56
-0.3726157248020172 -0.0962696522474289 1.2232887744903564 61 47 34
-0.3014373779296875 -0.09893758594989777 1.2446849346160889 174 154 129
-0.1918792426586151 -0.09803716093301773 1.2520463466644287 74 59 45
-0.1843768060207367 -0.09829564392566681 1.2548847198486328 87 74 58
-0.18072758615016937 -0.09846437722444534 1.256675124168396 162 150 133
-0.1734417825937271 -0.09884139150381088 1.261454701423645 43 31 26
-0.1666852980852127 -0.09892276674509048 1.268103837966919 94 82 76
-0.1619967222213745 -0.10685089975595474 1.3133949041366577 74 62 56
-0.15879951417446136 -0.10785301774740219 1.324095606803894 62 53 49
-0.15563732385635376 -0.10875319689512253 1.3338730335235596 75 66 63
-0.15249767899513245 -0.10956814885139465 1.3426634073257446 76 67 64
-0.14911647140979767 -0.11036180704832077 1.35069739818573 61 52 50
-0.14567911624908447 -0.11115337163209915 1.3576411008834839 56 46 45
-0.141865074634552 -0.11196811497211456 1.363093376159668 66 56 56
-0.13801556825637817 -0.11269159615039825 1.368090271949768 56 46 46
-0.13418705761432648 -0.11325997114181519 1.3723530769348145 64 54 54
-0.13052475452423096 -0.11371619254350662 1.3757061958312988 51 41 41
-0.12316037714481354 -0.11439748108386993 1.3813531398773193 70 60 58
-0.1156964898109436 -0.11489949375391006 1.3867038488388062 74 64 62
-0.11194629967212677 -0.11519661545753479 1.3896616697311401 79 70 63
-0.08460333198308945 -0.11767633259296417 1.411972999572754 143 133 124
-0.0724567174911499 -0.11881056427955627 1.4231619834899902 65 52 43
-0.06417934596538544 -0.11959543079137802 1.4310716390609741 54 41 32
-0.05149848759174347 -0.12087368220090866 1.4439606666564941 132 120 99
-0.04718194529414177 -0.12132928520441055 1.4486768245697021 90 78 57
-0.04283086955547333 -0.12180162221193314 1.4535646438598633 135 122 105
-0.03845677897334099 -0.12231219559907913 1.4586753845214844 91 78 62
-0.0340418666601181 -0.12286264449357986 1.4641021490097046 61 48 32
-0.029593029990792274 -0.1234414130449295 1.4698907136917114 57 44 28
-0.02504604309797287 -0.12412485480308533 1.4764765501022339 69 56 40
-0.020397381857037544 -0.12489545345306396 1.4835809469223022 76 64 48
-0.015564397908747196 -0.12579728662967682 1.4915645122528076 84 72 60
-0.00036101037403568625 -0.12894122302532196 1.5200308561325073 68 43 31
0.009658767841756344 -0.13099996745586395 1.5374590158462524 82 57 44
0.019138744100928307 -0.1319941133260727 1.547917366027832 80 56 52
0.28744232654571533 -0.07057735323905945 0.8580995798110962 178 172 169
0.2959117591381073 -0.07027225941419601 0.8450911641120911 196 196 190
0.333055704832077 -0.07223577052354813 0.8466373085975647 61 54 35
0.5025930404663086 -0.08528482913970947 0.9938517212867737 198 172 125
0.5661272406578064 -0.0748106986284256 0.9154793620109558 234 200 155
0.5683358311653137 -0.07451722770929337 0.9133958220481873 154 121 85
0.5778302550315857 -0.07409396767616272 0.9102210998535156 46 36 29
0.5860919952392578 -0.07405632734298706 0.9113484025001526 181 205 237
-0.9995482563972473 -0.1009809598326683 1.2056639194488525 38 24 23
-0.9929659366607666 -0.10351821780204773 1.2166075706481934 39 25 24
-0.9833908081054688 -0.10582152009010315 1.2263987064361572 34 22 21
-0.9731243252754211 -0.10716810822486877 1.2345972061157227 33 23 22
-0.9699562788009644 -0.10739579051733017 1.2367746829986572 29 19 18
-0.9637390971183777 -0.10798025131225586 1.2412419319152832 29 15 15
-0.9583028554916382 -0.10870852321386337 1.2464576959609985 28 14 13
-0.9544306993484497 -0.10968674719333649 1.253607988357544 49 34 31
-0.9528704285621643 -0.11018183827400208 1.258190393447876 66 51 48
-0.7461481094360352 -0.09488113224506378 1.1659231185913086 158 183 222
-0.7320292592048645 -0.09281400591135025 1.1466814279556274 163 187 226
-0.7201864123344421 -0.09142866730690002 1.1333059072494507 186 186 207
-0.7102502584457397 -0.09045825898647308 1.123570203781128 179 176 190
-0.6865218877792358 -0.0863700807094574 1.0993274450302124 124 114 105
-0.6747418642044067 -0.08514340966939926 1.0924490690231323 190 176 160
-0.6697494983673096 -0.0846581682562828 1.0900408029556274 104 87 69
-0.6610883474349976 -0.08394158631563187 1.087095022201538 144 122 101
-0.6541398167610168 -0.0835612341761589 1.0866955518722534 171 150 123
-0.6427184343338013 -0.08434809744358063 1.0904380083084106 61 40 26
-0.6348298788070679 -0.08442572504281998 1.093214750289917 61 45 30
-0.6297403573989868 -0.08452048897743225 1.095621943473816 59 46 30
-0.6249784231185913 -0.08470196276903152 1.099236249923706 54 40 27
-0.5336066484451294 -0.08768221735954285 1.1446826457977295 172 150 127
-0.4739293158054352 -0.08924829959869385 1.1742706298828125 120 102 80
-0.42251384258270264 -0.09142310917377472 1.203230619430542 113 94 74
-0.41602030396461487 -0.09158345311880112 1.2058992385864258 170 152 132
-0.41270911693573 -0.09164535999298096 1.207103967666626 140 122 102
-0.4026217460632324 -0.09169147908687592 1.2104285955429077 76 60 47
-0.39245927333831787 -0.09169801324605942 1.2136808633804321 73 59 50
-0.3856671452522278 -0.09173637628555298 1.2159076929092407 73 59 50
-0.38226065039634705 -0.09177970141172409 1.2171008586883545 64 50 40
-0.37209635972976685 -0.0921352431178093 1.2213680744171143 59 45 32
-0.3620547354221344 -0.0929141417145729 1.2268668413162231 83 69 56
-0.3521410822868347 -0.09368743747472763 1.2326080799102783 126 110 94
-0.3455706536769867 -0.09408561140298843 1.2353538274765015 150 134 118
-0.34198006987571716 -0.09424389898777008 1.2365248203277588 180 164 148
-0.3344554603099823 -0.09449318051338196 1.2385369539260864 93 76 66
-0.3231557309627533 -0.09477902948856354 1.2408649921417236 181 166 141
-0.3120754361152649 -0.09494678676128387 1.2425811290740967 181 160 131
-0.3047359585762024 -0.09498217701911926 1.2433407306671143 175 155 130
-0.2937190532684326 -0.09497545659542084 1.2441118955612183 151 131 106
-0.2826710045337677 -0.09493836015462875 1.244839072227478 216 192 168
-0.2789670526981354 -0.09491966664791107 1.245103359222412 184 160 136
-0.27153995633125305 -0.09489602595567703 1.245604157447815 162 138 112
-0.26404112577438354 -0.09488686174154282 1.2460765838623047 197 173 147
-0.25270697474479675 -0.09479949623346329 1.2465468645095825 181 158 127
-0.24123232066631317 -0.09467561542987823 1.2469336986541748 219 196 165
-0.23357625305652618 -0.09458691626787186 1.2472184896469116 207 182 152
-0.2221231907606125 -0.09431833773851395 1.2475632429122925 109 83 56
-0.21451368927955627 -0.09408993273973465 1.2478646039962769 168 142 115
-0.2030331790447235 -0.0938643291592598 1.2483837604522705 101 85 62
-0.19120505452156067 -0.09392019361257553 1.2490079402923584 60 43 29
-0.18349149823188782 -0.09406275302171707 1.2498433589935303 183 167 148
-0.17210222780704498 -0.09457528591156006 1.2525968551635742 113 99 88
-0.1646849364042282 -0.09490301460027695 1.255708932876587 151 137 124
-0.16110332310199738 -0.09501512348651886 1.2576267719268799 172 157 144
-0.15423069894313812 -0.09515471011400223 1.2623071670532227 64 53 43
-0.14989329874515533 -0.10382555425167084 1.3152209520339966 77 66 57
-0.1433972269296646 -0.10562533140182495 1.3344104290008545 63 53 47
-0.1399841010570526 -0.10646668821573257 1.3439881801605225 51 41 39
-0.13662482798099518 -0.10720884799957275 1.3536702394485474 60 51 48
-0.13313178718090057 -0.10796947032213211 1.3615506887435913 64 54 51
-0.11469724774360657 -0.11010387539863586 1.3812198638916016 68 58 56
-0.10744953155517578 -0.11064036935567856 1.386979341506958 72 63 56
-0.10372936725616455 -0.11094582825899124 1.3901216983795166 66 57 50
-0.09607066214084625 -0.11152554303407669 1.3963910341262817 82 72 63
-0.09213276207447052 -0.11182250827550888 1.3993980884552002 91 81 72
-0.08412518352270126 -0.1124843955039978 1.405745029449463 34 24 15
-0.07194981724023819 -0.11356736719608307 1.416359543800354 87 74 65
-0.06368773430585861 -0.11429203301668167 1.4237558841705322 82 69 60
-0.05951884016394615 -0.11466924101114273 1.4275822639465332 133 120 103
-0.04243510216474533 -0.11622380465269089 1.4447059631347656 65 52 36
-0.03371930867433548 -0.11715059727430344 1.4543551206588745 172 159 143
-0.024918342009186745 -0.11825457215309143 1.4655054807662964 166 153 137
-0.010889148339629173 -0.12077517062425613 1.4870388507843018 116 103 97
-0.005861104466021061 -0.12187082320451736 1.4966237545013428 77 63 61
-0.0007554686162620783 -0.12295731902122498 1.5070972442626953 68 47 36
0.004363281186670065 -0.12403175234794617 1.5176167488098145 77 55 44
0.009380286559462547 -0.12519793212413788 1.5270264148712158 72 50 39
0.019161539152264595 -0.12658774852752686 1.5411232709884644 60 43 41
0.028460649773478508 -0.1276603788137436 1.5501682758331299 79 62 62
0.23737598955631256 -0.06678696721792221 0.8777897357940674 181 150 104
0.24607978761196136 -0.06725455075502396 0.8765880465507507 124 93 59
0.2550804018974304 -0.06797707080841064 0.8771974444389343 42 25 9
0.27721741795539856 -0.06847372651100159 0.8701478838920593 204 210 211
0.28706249594688416 -0.06843309104442596 0.8665478825569153 242 239 238
0.29676708579063416 -0.06896422803401947 0.8566412925720215 137 135 136
0.33713483810424805 -0.06993083655834198 0.8501086831092834 122 113 96
0.4974379241466522 -0.08210854977369308 0.9954702854156494 254 235 194
0.499347448348999 -0.08197823911905289 0.9938013553619385 225 191 146
0.508612871170044 -0.08202973008155823 0.992755115032196 65 64 61
0.5587226152420044 -0.07338722050189972 0.9333698153495789 211 214 223
0.5605147480964661 -0.07271123677492142 0.9225133657455444 240 224 208
-0.9961242079734802 -0.09638446569442749 1.2024943828582764 36 22 21
-0.992640495300293 -0.09810817241668701 1.2098069190979004 36 22 21
-0.9835640788078308 -0.09999388456344604 1.2170367240905762 35 24 22
-0.9727184772491455 -0.10159223526716232 1.2243876457214355 36 23 20
-0.9699698090553284 -0.10176943242549896 1.2261313199996948 38 23 18
-0.9637945294380188 -0.10206886380910873 1.2299617528915405 36 21 16
-0.9544168710708618 -0.10254450142383575 1.2358851432800293 70 57 51
-0.9438931941986084 -0.10359001159667969 1.246420979499817 56 41 38
-0.9378180503845215 -0.10497712343931198 1.2561051845550537 47 33 27
-0.9361594319343567 -0.10547143220901489 1.2598497867584229 28 16 4
-0.9347072839736938 -0.10591541230678558 1.2641817331314087 30 18 7
-0.7669267654418945 -0.09320634603500366 1.1937074661254883 145 169 200
-0.7335329055786133 -0.0890846773982048 1.143592119216919 153 165 185
-0.6914983987808228 -0.08303434401750565 1.095916986465454 145 128 119
-0.6849558353424072 -0.08236134797334671 1.0919034481048584 179 157 141
-0.6687462329864502 -0.08065279573202133 1.0835511684417725 172 154 134
-0.6641510725021362 -0.08021080493927002 1.0818020105361938 135 118 100
-0.6531472206115723 -0.07948751002550125 1.0796148777008057 82 60 39
-0.644883930683136 -0.08015969395637512 1.083249568939209 203 181 160
-0.6155736446380615 -0.08159938454627991 1.1069046258926392 58 44 38
-0.6132522821426392 -0.08174717426300049 1.1088817119598389 59 46 38
-0.6035804748535156 -0.08236359804868698 1.1163393259048462 58 45 37
-0.5931894779205322 -0.08285003900527954 1.1228348016738892 61 48 40
-0.5876657962799072 -0.08303894102573395 1.1257396936416626 64 51 42
-0.5848253965377808 -0.08314458280801773 1.1271183490753174 68 55 46
-0.5731930732727051 -0.08348137140274048 1.1320642232894897 144 118 93
-0.5642153024673462 -0.08366852253675461 1.135141134262085 160 137 108
-0.5549938678741455 -0.08382368832826614 1.1378254890441895 138 114 87
-0.5426025390625 -0.0840194821357727 1.1412198543548584 182 158 134
-0.5332886576652527 -0.08416635543107986 1.1439342498779297 160 138 115
-0.5272159576416016 -0.08430588245391846 1.1462026834487915 73 58 47
-0.524278998374939 -0.08437946438789368 1.1476364135742188 65 51 42
-0.5129334330558777 -0.08473879843950272 1.1551121473312378 71 58 49
-0.5042524933815002 -0.08495352417230606 1.160457730293274 75 62 53
-0.4525544345378876 -0.08638141304254532 1.1849533319473267 148 131 118
-0.36485835909843445 -0.08840999007225037 1.2227996587753296 72 59 40
-0.34488141536712646 -0.08958671987056732 1.2322337627410889 135 119 103
-0.27488914132118225 -0.09100580215454102 1.2442377805709839 168 144 120
-0.2636704444885254 -0.09098051488399506 1.244868516921997 148 124 98
-0.16352054476737976 -0.09070656448602676 1.2479557991027832 208 190 167
-0.15254749357700348 -0.0910743996500969 1.250209927558899 216 201 181
-0.14203056693077087 -0.09132271260023117 1.2548713684082031 135 124 110
-0.13853617012500763 -0.09143535792827606 1.2575883865356445 47 38 29
-0.13419725000858307 -0.10174573957920074 1.32850980758667 47 38 29
-0.13097091019153595 -0.10244440287351608 1.3406509160995483 115 106 97
-0.12777866423130035 -0.10305966436862946 1.351975679397583 61 52 44
-0.12443631887435913 -0.10370223224163055 1.360779881477356 63 53 51
-0.12077464908361435 -0.10435590147972107 1.3668473958969116 53 43 41
-0.10300944000482559 -0.10611500591039658 1.3846039772033691 70 61 54
-0.09160365164279938 -0.10682982206344604 1.3940813541412354 58 48 40
-0.0835941731929779 -0.10739827156066895 1.400295376777649 89 79 70
-0.07139243185520172 -0.10841279476881027 1.4103572368621826 92 79 70
-0.05482340604066849 -0.10974262654781342 1.424633264541626 141 127 116
-0.050608210265636444 -0.11007564514875412 1.4285073280334473 90 76 65
-0.04205641150474548 -0.11079239100217819 1.4367260932922363 157 143 129
-0.033427413552999496 -0.11160259693861008 1.445434808731079 152 139 123
-0.024781307205557823 -0.11254575848579407 1.455222725868225 117 104 88
-0.01587803103029728 -0.11391103267669678 1.466590404510498 61 49 37
-0.001305360347032547 -0.1168837621808052 1.4919614791870117 88 71 64
0.0037933250423520803 -0.11794214695692062 1.502732753753662 61 44 37
0.008950375951826572 -0.11891527473926544 1.5136672258377075 73 56 49
0.014038803987205029 -0.11988931894302368 1.5233237743377686 59 42 35
0.019031701609492302 -0.12076239287853241 1.5316226482391357 65 56 57
0.023932291194796562 -0.12154487520456314 1.538426160812378 83 77 79
0.02871229127049446 -0.12218853086233139 1.543661117553711 112 106 108
0.033361103385686874 -0.12263844907283783 1.54805326461792 68 63 64
0.03788302093744278 -0.1228921040892601 1.5516016483306885 40 34 36
0.23319467902183533 -0.06350747495889664 0.8842041492462158 224 192 151
0.2355986386537552 -0.06365366280078888 0.8823465704917908 239 208 162
0.2466214895248413 -0.0642905980348587 0.8789757490158081 146 114 82
0.26616591215133667 -0.06643366813659668 0.881397545337677 178 168 170
0.2712462842464447 -0.06616847962141037 0.8878503441810608 199 192 199
0.2785799205303192 -0.06573792546987534 0.8918102979660034 46 48 61
0.2857137620449066 -0.06556419283151627 0.8958539366722107 110 117 125
0.2961396276950836 -0.06659693270921707 0.9012444019317627 220 224 233
0.30606526136398315 -0.06700195372104645 0.8933377265930176 247 248 251
0.30667343735694885 -0.06469625979661942 0.8439974188804626 221 199 170
0.31781283020973206 -0.0649164617061615 0.8417373895645142 169 131 88
0.5569183826446533 -0.0708087757229805 0.9356937408447266 209 212 221
0.5627307891845703 -0.06922280788421631 0.9149210453033447 251 219 168
-0.9928837418556213 -0.09180232882499695 1.1993356943130493 49 35 34
-0.9889935255050659 -0.09350447356700897 1.2062050104141235 49 35 34
-0.9820967316627502 -0.09467873722314835 1.2109991312026978 40 26 25
-0.9794497489929199 -0.09515302628278732 1.2126423120498657 29 18 16
-0.9647461771965027 -0.09661305695772171 1.2205523252487183 72 53 46
-0.9523324966430664 -0.09714237600564957 1.2279586791992188 42 29 20
-0.943525493144989 -0.09745685756206512 1.2339831590652466 36 23 14
-0.9407046437263489 -0.09757956117391586 1.2364047765731812 35 20 15
-0.9328835010528564 -0.0983300432562828 1.2443947792053223 54 39 35
-0.9306076169013977 -0.0987306535243988 1.2469158172607422 36 21 20
-0.9243838787078857 -0.09994251281023026 1.2562732696533203 31 17 17
-0.7983394265174866 -0.09181195497512817 1.2352145910263062 124 144 169
-0.781744658946991 -0.08976808935403824 1.209787368774414 111 134 162
-0.7648081183433533 -0.08791426569223404 1.1841648817062378 126 151 180
-0.7476301789283752 -0.08636844158172607 1.1589953899383545 175 182 195
-0.7326852083206177 -0.08478797972202301 1.1369785070419312 124 124 132
-0.703848123550415 -0.07995244115591049 1.097988247871399 137 126 125
-0.6969223618507385 -0.07962533086538315 1.0928623676300049 93 75 67
-0.6904807686805725 -0.07900074869394302 1.0888365507125854 104 87 72
-0.6787573099136353 -0.07780905067920685 1.0825139284133911 167 143 121
-0.6596740484237671 -0.07589472085237503 1.0749741792678833 199 182 162
-0.6528538465499878 -0.07553515583276749 1.074077844619751 73 61 49
-0.5638465285301208 -0.08022850006818771 1.1343973875045776 186 162 135
-0.5125566720962524 -0.08120570331811905 1.1542811393737793 71 58 49
-0.4947006404399872 -0.08161213248968124 1.1635394096374512 91 74 59
-0.4884219467639923 -0.0817069411277771 1.1658575534820557 142 117 90
-0.4821219742298126 -0.08180083334445953 1.1681748628616333 186 160 133
-0.47287294268608093 -0.0819229930639267 1.1719098091125488 109 91 70
-0.46371471881866455 -0.08214698731899261 1.1763337850570679 73 53 45
-0.45486342906951904 -0.08247978985309601 1.1816647052764893 95 79 66
-0.44905367493629456 -0.08274095505475998 1.1854583024978638 52 38 29
-0.4431442320346832 -0.08297450095415115 1.1891522407531738 58 44 35
-0.43404102325439453 -0.08329983800649643 1.1943886280059814 62 48 39
-0.43092891573905945 -0.08341364562511444 1.1960564851760864 67 53 44
-0.4246242642402649 -0.08363509178161621 1.199268102645874 71 56 45
-0.41176217794418335 -0.08402764797210693 1.2050085067749023 148 130 110
-0.4018242359161377 -0.084206223487854 1.2086951732635498 79 63 50
-0.3917463421821594 -0.0842851921916008 1.2121139764785767 68 54 45
-0.38495853543281555 -0.08430507034063339 1.2143549919128418 57 43 34
-0.3815445005893707 -0.08431407064199448 1.2154783010482788 75 61 50
-0.37470361590385437 -0.08433301001787186 1.217663288116455 50 36 24
-0.36445459723472595 -0.08444129675626755 1.221206784248352 118 106 82
-0.35428696870803833 -0.08479408174753189 1.2254347801208496 75 63 39
-0.333281934261322 -0.08572673052549362 1.2332290410995483 102 85 75
-0.251943439245224 -0.0869237557053566 1.2436953783035278 211 188 158
-0.2442944496870041 -0.08684063702821732 1.2437998056411743 212 189 158
-0.2328006625175476 -0.086717389523983 1.244248628616333 179 154 124
-0.2213473916053772 -0.08652151376008987 1.2448312044143677 104 78 51
-0.1666465401649475 -0.08643773943185806 1.244734764099121 240 219 191
-0.1627151221036911 -0.0865292176604271 1.2442084550857544 180 159 130
-0.15135063230991364 -0.08677742630243301 1.2432920932769775 221 204 178
-0.1439373940229416 -0.08694852143526077 1.2430347204208374 209 192 167
-0.13298603892326355 -0.08736225962638855 1.2454041242599487 136 128 115
-0.12220951914787292 -0.09796115756034851 1.3385059833526611 51 41 39
-0.11918747425079346 -0.09863868355751038 1.3505743741989136 55 45 43
-0.11270135641098022 -0.1002528965473175 1.3674901723861694 66 56 54
-0.10557850450277328 -0.10116356611251831 1.376441240310669 69 60 53
-0.10216417908668518 -0.101453498005867 1.3797513246536255 77 67 61
-0.09492213279008865 -0.10187222063541412 1.3856711387634277 64 55 46
-0.08310573548078537 -0.10256920754909515 1.395186185836792 58 48 40
-0.07496652007102966 -0.10317050665616989 1.4018837213516235 57 44 35
-0.07088097184896469 -0.10347425937652588 1.4051769971847534 63 50 41
-0.06268583238124847 -0.10405620187520981 1.411833643913269 41 28 19
-0.058547161519527435 -0.10435439646244049 1.4151933193206787 52 37 30
-0.05437798798084259 -0.10464699566364288 1.4186460971832275 66 51 45
-0.04171635955572128 -0.10556209087371826 1.4297090768814087 78 64 51
-0.03315475210547447 -0.10623438656330109 1.437495231628418 87 74 58
-0.02459225431084633 -0.10698233544826508 1.445909023284912 146 133 117
