ply
format ascii 1.0
element vertex 1061
property float x
property float y
property float z
property uchar red
property uchar green
property uchar blue
end_header
-0.46588940 -0.04481136 0.79545636 179 164 145
-0.46441582 -0.04454778 0.79283227 115 100 81
-0.46012969 -0.04368921 0.78398754 158 145 126
-0.45600789 -0.04278520 0.77444816 159 146 127
-0.10671551 -0.02825230 0.78496509 92 80 64
-0.48350622 -0.04476536 0.80790560 166 150 134
-0.48034508 -0.04438762 0.80468617 139 123 108
-0.47101666 -0.04321009 0.79432731 101 85 70
-0.46517637 -0.04215401 0.78348551 151 136 117
-0.45545679 -0.04024727 0.76340416 138 125 108
-0.51296943 -0.04387682 0.82629775 140 129 111
-0.51132672 -0.04363429 0.82386754 137 126 108
-0.45654956 -0.03626380 0.75337668 141 128 111
-0.51633940 -0.04220999 0.82554181 150 139 121
-0.50657244 -0.04104200 0.81486685 165 152 133
-0.46841990 -0.03588813 0.76412014 143 128 109
-0.46117563 -0.03499006 0.75571645 177 164 145
-0.45420579 -0.03400589 0.74579346 153 140 123
-0.24324464 -0.02509639 0.76487709 105 91 78
-0.51804092 -0.04033204 0.82255385 157 145 131
-0.47467319 -0.03467107 0.76635235 143 127 112
-0.35353283 -0.02605805 0.72409657 101 89 77
-0.51645857 -0.03802815 0.81491004 169 158 140
-0.07675308 -0.01230151 0.75470793 127 112 93
-0.06517003 -0.01105829 0.74371928 100 84 69
-0.03626039 -0.00665512 0.69467408 105 93 81
-0.03439360 -0.00652290 0.69403621 89 77 66
-0.50855512 -0.03489110 0.79779143 156 140 124
-0.52301855 -0.03476765 0.81288173 146 137 128
-0.51656344 -0.03392214 0.80364641 167 155 141
-0.05546533 -0.00543197 0.72485876 114 98 83
-0.52793709 -0.03343411 0.81551431 143 136 128
-0.52630590 -0.03324244 0.81351749 156 149 141
-0.09409076 -0.00706197 0.75481178 128 114 101
-0.49535801 -0.02737080 0.76419382 147 134 118
-0.10164152 -0.00541728 0.75446613 149 135 124
-0.52625064 -0.02925928 0.80257901 142 133 126
-0.12571589 -0.00521968 0.76496349 65 56 48
-0.03674182 0.00354199 0.68395215 81 68 54
-0.05530923 0.00308579 0.71361844 109 97 81
-0.53614370 -0.02685995 0.81303397 136 121 112
-0.52780646 -0.02562263 0.79497780 153 144 137
-0.24346701 -0.00669371 0.73490408 114 100 87
-0.22324898 -0.00589157 0.74362007 107 95 79
-0.20236111 -0.00504115 0.75210637 81 67 54
-0.07771650 0.00287936 0.73478242 116 103 86
-0.53950973 -0.02546453 0.81628471 161 147 135
-0.53607670 -0.02496066 0.80859160 170 156 147
-0.53437408 -0.02470083 0.80452311 126 112 103
-0.52940438 -0.02398286 0.79367779 130 121 114
-0.52462493 -0.02338185 0.78552654 142 133 126
-0.45517773 -0.01650168 0.71427571 156 143 125
-0.26431723 -0.00563129 0.72319643 101 87 74
-0.10629943 0.00280548 0.74492388 144 128 115
-0.54115756 -0.02382092 0.81583873 128 115 101
-0.53599649 -0.02307296 0.80385938 126 111 99
-0.52622077 -0.02178184 0.78459632 132 122 112
-0.02591534 0.01255084 0.66489090 80 68 56
-0.02353191 0.01269345 0.66489214 56 44 33
-0.05602788 0.01124328 0.70456811 139 124 102
-0.04648476 0.01250397 0.68461098 60 48 36
-0.54618938 -0.02077854 0.81876078 144 132 118
-0.19480816 0.00337814 0.74313493 81 67 54
-0.16454564 0.00488582 0.75484704 76 66 54
-0.07851037 0.01116102 0.72486073 133 121 99
-0.54594271 -0.01884914 0.81222168 154 142 128
-0.53746803 -0.01781204 0.79477454 131 115 99
-0.45510942 -0.01000341 0.70399557 172 156 140
-0.06547082 0.01427150 0.71409709 113 100 84
-0.46601475 -0.00943899 0.71388593 151 136 115
-0.41574555 -0.00470774 0.65633074 109 92 76
-0.28423620 0.00271925 0.69465859 84 72 58
-0.26478129 0.00378309 0.70165919 89 78 63
-0.24280794 0.00491039 0.71239987 87 73 60
-0.08621705 0.01463442 0.72443749 106 91 72
-0.00377425 0.02177571 0.65363038 75 62 51
-0.54566708 -0.01520117 0.80320922 150 150 139
-0.53569496 -0.01407877 0.78318714 120 108 96
-0.10953987 0.01484351 0.73459878 81 69 57
-0.04634463 0.02037845 0.67458733 105 89 74
0.00654779 0.02441616 0.64956981 100 86 75
-0.45226164 -0.00499930 0.69222615 185 169 153
-0.30492246 0.00495288 0.68307310 78 64 51
-0.03721980 0.02330263 0.65369609 69 57 45
-0.55545403 -0.01262962 0.81087282 27 29 41
-0.54533807 -0.01162667 0.79334328 27 24 35
-0.53555976 -0.01062785 0.77480189 111 99 87
-0.46811474 -0.00488473 0.70929554 183 168 145
-0.46412741 -0.00453568 0.70490473 187 172 149
-0.45507713 -0.00372104 0.69372072 169 153 137
0.01115257 0.02855709 0.64487405 120 107 91
-0.55513742 -0.01081593 0.80472941 27 29 41
-0.46571241 -0.00311927 0.70433194 187 172 149
-0.54503337 -0.00816257 0.78403073 28 30 49
-0.23267881 0.01459751 0.70258096 111 98 82
-0.08732209 0.02453456 0.71444935 123 110 94
-0.53539219 -0.00562817 0.76331122 78 78 73
-0.55624924 -0.00577835 0.79485063 33 38 56
-0.54637679 -0.00494025 0.77825538 32 37 56
-0.54477348 -0.00480466 0.77562626 34 37 54
-0.54318405 -0.00467074 0.77308281 39 39 51
-0.53844740 -0.00426756 0.76498468 32 32 44
-0.53380266 -0.00387183 0.75699778 113 90 80
-0.45645548 0.00224422 0.68376615 164 149 130
-0.29497395 0.01387324 0.67464622 109 97 83
-0.03261268 0.03296437 0.63494149 96 82 69
-0.55962237 -0.00439291 0.79904482 33 39 55
-0.55778696 -0.00423427 0.79428034 32 37 56
-0.55430736 -0.00394114 0.78668048 34 39 58
-0.54624565 -0.00328941 0.77422893 35 40 59
-0.46685505 0.00289925 0.69477565 174 162 140
-0.17297998 0.02409051 0.72363532 86 76 66
-0.16363739 0.02476214 0.72494059 80 70 58
-0.05515507 0.03291347 0.67376293 120 108 94
-0.03598728 0.03451713 0.63398301 103 89 76
-0.53524995 -0.00081123 0.75268771 128 99 102
-0.47762682 0.00356721 0.70395115 159 146 130
-0.45836025 0.00505032 0.68057273 166 151 132
-0.32458229 0.01495464 0.66381749 101 87 74
-0.55561760 -0.00077156 0.78174710 68 46 60
-0.46490589 0.00601902 0.68649823 173 161 139
-0.45635054 0.00665982 0.67371856 162 147 126
-0.08852383 0.03415638 0.70456329 87 74 58
0.05638147 0.04499683 0.62823665 134 113 102
-0.56583128 0.00011680 0.79901097 72 54 52
-0.54742986 0.00142624 0.76492271 108 82 83
-0.12434848 0.03338126 0.71493158 120 110 101
-0.56541149 0.00177145 0.79292457 54 34 33
-0.55522972 0.00245501 0.77356580 101 61 59
-0.51799212 0.00507450 0.72605828 178 159 153
-0.15353247 0.03303744 0.71414815 64 55 48
-0.14492171 0.03369904 0.71405012 58 48 46
-0.13429729 0.03451335 0.71353798 60 51 44
-0.54561612 0.00465820 0.75487361 108 63 50
-0.53950905 0.00505930 0.74519054 188 178 172
-0.53363758 0.00546088 0.73793971 123 103 94
-0.28448012 0.02431326 0.66416901 87 75 63
-0.56305842 0.00509795 0.77980135 209 160 163
-0.55971816 0.00529952 0.77377675 128 80 83
-0.55483947 0.00559856 0.76542547 137 92 93
-0.55324571 0.00569753 0.76282041 137 92 94
-0.54703159 0.00609228 0.75352093 137 97 97
-0.41399648 0.01517206 0.61514580 157 141 125
-0.04522029 0.04451734 0.63481613 112 99 90
-0.57323306 0.00609633 0.79574129 178 160 160
-0.57138340 0.00618993 0.79153629 117 104 104
-0.56785639 0.00638101 0.78448881 135 125 126
-0.55627608 0.00704906 0.76448664 243 212 210
-0.47661399 0.01238424 0.68392109 151 139 123
-0.46641689 0.01307112 0.67391325 160 148 126
-0.07545607 0.04451243 0.68395215 121 108 89
-0.54523473 0.00919126 0.74345724 102 84 76
-0.45750217 0.01492494 0.65449455 156 141 118
-0.22440037 0.03413191 0.67311370 74 60 51
-0.09668459 0.04483581 0.69489716 105 92 76
-0.57588613 0.00907492 0.79144872 137 119 119
-0.56551221 0.00957318 0.77195344 18 8 9
-0.46463564 0.01592332 0.66511141 158 146 124
-0.25285621 0.03313210 0.65393507 79 67 55
-0.23310791 0.03493984 0.66405259 77 65 53
-0.55568827 0.01157595 0.75277736 111 101 91
-0.49948758 0.01507962 0.69620888 82 75 68
-0.27338894 0.03282927 0.64426822 81 71 61
-0.00385254 0.05461795 0.61258176 122 92 81
-0.57661510 0.01205866 0.78283503 131 128 121
-0.56644975 0.01249154 0.76470543 69 66 59
-0.54636641 0.01348754 0.73489841 171 161 152
-0.52112569 0.01504968 0.71069096 169 165 154
-0.51433696 0.01549020 0.70504994 121 117 106
-0.16404251 0.04473599 0.69219087 56 46 44
-0.04564949 0.05289555 0.61418393 76 62 53
-0.03968962 0.05317373 0.60459566 141 105 90
-0.03498377 0.05357644 0.60484253 165 123 107
-0.55527084 0.01448991 0.74472092 105 95 85
-0.54482036 0.01500146 0.73008180 139 129 120
-0.53914600 0.01534127 0.72451666 95 91 82
-0.53494236 0.01559863 0.72060982 117 112 106
-0.29325945 0.03399403 0.63425880 89 77 63
-0.57715602 0.01492819 0.77291055 97 92 86
-0.57371940 0.01504133 0.76648443 134 131 124
-0.57211864 0.01511610 0.76426173 67 64 57
-0.56423961 0.01548415 0.75332288 4 1 0
-0.55660486 0.01585456 0.74320366 71 46 41
-0.55355208 0.01598545 0.73855644 183 173 163
-0.55054586 0.01611838 0.73412113 27 16 7
-0.23315102 0.04128859 0.65459132 80 67 58
-0.20449005 0.04427167 0.67220451 70 57 48
-0.10492050 0.05324559 0.68488419 71 57 44
-0.58397391 0.01622790 0.78323577 169 159 150
-0.57847203 0.01633965 0.77140079 85 78 71
-0.56709482 0.01678403 0.75375153 146 142 134
-0.42045965 0.02500446 0.60604334 109 93 77
-0.21349058 0.04491648 0.66340531 73 60 51
-0.13338753 0.05260056 0.68488792 106 95 77
-0.12478734 0.05335283 0.68486762 104 91 73
-0.11449370 0.05422839 0.68404865 116 103 87
-0.58505176 0.01760724 0.77972875 87 80 67
-0.57621142 0.01780092 0.76231839 98 88 78
-0.54740952 0.01906579 0.72431056 94 90 81
-0.43420488 0.02544897 0.61660241 118 101 83
-0.24399806 0.04326130 0.64488808 87 74 58
-0.56510393 0.01970557 0.74481065 66 53 44
-0.55753801 0.02000862 0.73451977 116 99 92
-0.46576672 0.02494641 0.64428574 154 134 123
-0.26493632 0.04261428 0.63491653 83 73 61
-0.58535790 0.02033496 0.76920889 111 103 90
-0.57546813 0.02062394 0.75364577 83 73 63
-0.16337934 0.05482693 0.67203397 64 53 47
-0.04173364 0.06284805 0.59485729 39 20 13
-0.03287502 0.06365294 0.59488419 58 39 32
-0.54574271 0.02324398 0.71445716 91 87 78
-0.05538732 0.06408591 0.61432717 87 76 70
-0.58761211 0.02300643 0.76400800 98 84 76
-0.55701951 0.02410541 0.72469856 65 59 61
-0.53471939 0.02512421 0.70095665 74 73 69
-0.52404195 0.02567995 0.69112132 98 91 85
-0.28416398 0.04496232 0.62352922 82 70 56
-0.20451434 0.05370428 0.65386864 62 52 43
-0.57611702 0.02472509 0.74481268 50 36 25
-0.57023518 0.02500740 0.73905538 155 147 145
-0.56575360 0.02517130 0.73357761 168 160 155
-0.56424236 0.02521318 0.73144525 63 54 49
-0.55830850 0.02539291 0.72339815 164 158 160
-0.55397270 0.02554463 0.71795273 22 8 7
-0.55113871 0.02565837 0.71470402 152 138 137
-0.54418000 0.02596161 0.70723709 35 28 18
0.11165046 0.08228316 0.59460905 93 102 117
-0.59129294 0.02553861 0.76001864 40 27 21
-0.58642076 0.02565609 0.75304765 34 21 12
-0.58479609 0.02568902 0.75059709 33 19 8
-0.57881750 0.02595913 0.74458510 123 109 98
-0.39454493 0.03510556 0.57585473 164 149 134
-0.55507816 0.02810516 0.71327729 86 81 82
-0.41458561 0.03507115 0.58806729 187 173 160
-0.23495631 0.05470456 0.63362719 90 76 63
-0.59648667 0.02797549 0.75801659 92 74 56
-0.58551197 0.02829405 0.74437025 90 74 61
-0.56506548 0.02913486 0.72346143 112 113 103
-0.05500447 0.07214969 0.60424182 115 138 167
-0.59740010 0.02920440 0.75459759 99 82 66
-0.57531948 0.03020535 0.73425552 95 79 80
-0.45423941 0.03525266 0.61501696 170 194 228
-0.44399125 0.03582575 0.60746673 157 183 218
-0.56566778 0.03283822 0.71371431 162 171 160
-0.19346960 0.06497974 0.63063234 140 128 114
-0.11294287 0.07452336 0.65401510 160 144 128
-0.59735723 0.03300010 0.74350334 48 30 20
-0.58720985 0.03345533 0.73470827 99 80 63
-0.57581425 0.03396573 0.72481869 44 59 49
-0.52406252 0.03535788 0.66571344 149 182 224
-0.20458552 0.06472436 0.61929095 133 120 112
-0.58280949 0.03501205 0.72942945 93 85 66
-0.57838209 0.03511791 0.72430317 132 126 109
-0.57389158 0.03516453 0.71820826 37 43 41
-0.57088179 0.03516661 0.71369325 146 158 158
-0.56367127 0.03526645 0.70427469 158 169 171
-0.55398474 0.03549403 0.69299954 121 130 137
-0.54463583 0.03578828 0.68321704 154 170 197
-0.21455356 0.06460567 0.60945299 68 56 44
-0.15309108 0.07254994 0.63372245 126 113 96
-0.60477828 0.03558082 0.74913351 11 0 0
-0.60285001 0.03548523 0.74494345 87 72 59
-0.59501709 0.03558732 0.73488265 57 39 27
-0.59366536 0.03568234 0.73424504 65 47 35
-0.56624351 0.03640836 0.70425576 154 166 166
-0.38187562 0.04506154 0.55615903 121 111 101
-0.22497116 0.06449304 0.60139266 58 45 36
-0.16452984 0.07230616 0.62347083 141 128 111
-0.60569195 0.03676092 0.74629549 145 132 115
-0.57607470 0.03748699 0.71383709 90 96 94
-0.40044563 0.04505027 0.56594247 83 71 59
-0.17303756 0.07237909 0.61442444 125 112 95
-0.15475987 0.07497120 0.62373476 148 135 118
-0.06635616 0.08282944 0.60473295 184 201 227
-0.60658629 0.03792450 0.74343335 97 84 67
-0.58625842 0.03865651 0.72472605 87 69 49
-0.41921138 0.04503054 0.57573406 78 73 67
-0.18365868 0.07212555 0.60487899 132 119 102
-0.07667917 0.08415367 0.61444972 95 80 82
0.04666138 0.09340785 0.56452868 92 185 237
0.05636829 0.09443722 0.56457774 0 9 33
0.13461201 0.10267279 0.56415661 135 159 205
-0.60620423 0.04000162 0.73235098 28 20 13
-0.46453818 0.04505574 0.60608543 148 173 213
-0.27497800 0.06370204 0.58399648 97 85 71
-0.26470413 0.06469286 0.58255475 90 78 66
-0.19283184 0.07342790 0.59475990 140 125 104
0.12176600 0.10490322 0.56464529 101 132 197
-0.59889093 0.04157960 0.72449750 52 32 14
-0.28571586 0.06397927 0.58451199 94 85 70
0.10544782 0.10487191 0.56428155 91 129 194
-0.60503041 0.04229881 0.72413727 114 87 63
-0.58754116 0.04328195 0.71323224 157 135 97
-0.29638733 0.06422747 0.58483998 79 69 60
-0.15431478 0.08155065 0.60463881 121 108 92
-0.13339066 0.08443593 0.61143152 130 118 104
-0.53884036 0.04501388 0.65598275 184 199 209
-0.21351842 0.07464837 0.58304225 136 122 108
-0.14331773 0.08430697 0.60407458 120 107 91
-0.60352827 0.04504315 0.72129796 192 150 111
-0.59401605 0.04550705 0.71470918 193 153 126
-0.58382865 0.04552461 0.70240754 164 138 111
-0.57400929 0.04558377 0.69101265 94 79 57
-0.56446654 0.04564603 0.67999081 116 126 135
0.04620118 0.10257979 0.55416163 73 172 246
0.05522745 0.10355535 0.55376852 71 171 246
0.06537527 0.10472344 0.55410706 73 172 247
0.12188534 0.11111856 0.55479247 101 135 199
-0.61462206 0.04592405 0.72900026 198 167 138
-0.61258731 0.04571848 0.72436404 195 164 135
-0.59641416 0.04657177 0.71397634 184 153 122
-0.24414991 0.07333125 0.57469565 100 87 70
-0.16439377 0.08398191 0.59201890 112 99 82
0.10867097 0.11136867 0.55473845 108 140 201
-0.61797123 0.04740603 0.73359750 178 146 115
-0.39460666 0.05512537 0.54947090 104 95 90
-0.61640857 0.04812544 0.72463223 57 25 13
-0.60509496 0.04843818 0.71464149 161 127 118
-0.41393395 0.05503706 0.55908417 169 201 235
-0.59626147 0.04972694 0.70352703 188 168 146
-0.43331192 0.05501563 0.56932283 198 174 172
-0.10469032 0.09378145 0.57461575 174 195 226
-0.44412697 0.05559237 0.57554694 167 178 200
0.05543431 0.11095640 0.54414338 68 168 246
0.06586657 0.11224067 0.54471414 69 169 245
-0.61595282 0.05130424 0.71438986 197 172 140
-0.47451207 0.05538563 0.59601708 202 214 238
-0.46475437 0.05572315 0.58837350 192 207 233
0.07576145 0.11491954 0.54324311 76 164 244
-0.60595863 0.05272139 0.70382882 66 61 63
-0.50484200 0.05526986 0.61687083 206 221 244
-0.62768324 0.05455144 0.73130884 201 185 147
-0.52448422 0.05546029 0.62857844 154 174 207
-0.63047793 0.05580793 0.73290789 183 160 128
-0.62611759 0.05521170 0.72310280 148 133 102
-0.62420708 0.05502087 0.71941940 136 121 90
-0.59421307 0.05501758 0.68763537 52 42 30
-0.58490186 0.05515555 0.67897801 97 62 60
-0.57430636 0.05517381 0.66791922 67 51 36
-0.56394072 0.05514466 0.65669117 90 78 64
-0.55399269 0.05526948 0.64724522 108 120 142
0.09748870 0.12162188 0.53494004 134 184 239
0.10799813 0.12274568 0.53359333 87 153 221
-0.62310682 0.05584289 0.71347669 88 71 53
-0.61556041 0.05569351 0.70432545 132 113 83
-0.61414387 0.05570029 0.70290396 150 133 92
-0.15384413 0.09450689 0.55244157 163 187 222
-0.03446004 0.10562393 0.52236945 58 164 242
-0.62577745 0.05704580 0.71482877 135 112 80
-0.38112126 0.06501495 0.52907169 95 183 241
-0.08526395 0.10473605 0.55484899 195 205 227
0.09486670 0.12388698 0.52865073 75 161 244
-0.39445747 0.06537100 0.53619383 81 190 255
-0.63518504 0.05996347 0.72566582 150 137 121
-0.41649234 0.06502819 0.54640817 80 192 255
-0.41441521 0.06515739 0.54535240 78 193 255
-0.11325417 0.10422911 0.55451319 190 205 231
-0.63597689 0.06098493 0.72357042 216 203 187
-0.61633931 0.05979525 0.69479062 132 109 84
-0.43437508 0.06501865 0.55505605 86 196 255
-0.62737325 0.06096356 0.70437460 70 57 41
-0.45636992 0.06500626 0.56765951 190 211 242
-0.45431275 0.06506594 0.56609941 177 211 255
-0.44401106 0.06547183 0.55910637 86 192 254
-0.33282416 0.07359412 0.51227787 69 59 50
-0.27678190 0.08515004 0.54580944 129 113 97
-0.63535158 0.06265410 0.71471699 227 216 201
-0.47440286 0.06531553 0.57869430 183 204 233
-0.22390676 0.09180169 0.52492797 155 143 144
-0.64081114 0.06511786 0.71801990 60 44 28
-0.62555804 0.06387589 0.69458900 172 154 134
-0.23187827 0.09204019 0.52478962 75 68 56
-0.20978109 0.09357545 0.51492946 168 196 235
-0.14458349 0.10448675 0.53192924 174 197 229
-0.63954849 0.06581977 0.71213916 83 67 51
-0.63403750 0.06520322 0.70259915 163 147 131
-0.61688065 0.06487180 0.68415640 127 111 95
-0.56472273 0.06502611 0.63632528 117 107 95
-0.55418456 0.06530023 0.62838348 238 247 247
-0.54489952 0.06544574 0.62070542 15 29 55
-0.24275364 0.09188221 0.52468998 104 93 80
-0.21790079 0.09376240 0.51470587 181 196 225
-0.15472542 0.10356977 0.52496865 172 195 227
-0.08576517 0.11407722 0.53476791 71 165 234
-0.63658006 0.06634793 0.70366077 173 157 141
-0.63013246 0.06590220 0.69457288 212 197 178
-0.62481335 0.06599678 0.69029304 47 30 12
-0.61929787 0.06595224 0.68486270 155 139 123
-0.61381303 0.06588467 0.67930055 36 13 2
-0.22571809 0.09400699 0.51473115 185 204 237
-0.23942467 0.09345259 0.51482053 110 119 112
-0.64633080 0.06953507 0.71605471 111 89 66
-0.64702532 0.07047396 0.71394430 135 113 90
-0.40884534 0.07503179 0.52932793 85 174 245
-0.40497472 0.07517271 0.52676890 90 164 232
-0.63697321 0.07019026 0.69438685 209 186 166
-0.62722622 0.07005384 0.68479764 167 143 115
-0.61541200 0.07013689 0.67478606 107 84 52
-0.42333570 0.07504211 0.53507979 67 181 252
-0.32377726 0.08394989 0.50395880 152 175 209
-0.43476062 0.07525814 0.53943621 66 182 254
-0.64721714 0.07300846 0.70465346 98 81 65
-0.45412827 0.07518597 0.54896056 93 182 253
-0.48273175 0.07502372 0.56590661 142 190 240
-0.47450836 0.07539282 0.56103476 121 187 247
-0.63502139 0.07408507 0.68460568 225 212 204
-0.49639172 0.07500383 0.57066563 165 194 236
-0.49431274 0.07514257 0.56971605 167 196 238
-0.65303669 0.07623393 0.70518380 87 68 51
-0.64964060 0.07590765 0.70032894 91 72 55
-0.64499135 0.07561879 0.69462633 84 67 51
-0.63599361 0.07510637 0.68386868 164 151 143
-0.63461122 0.07507564 0.68250294 250 237 230
-0.62470632 0.07545881 0.67632496 118 88 52
-0.62109876 0.07565669 0.67442350 164 130 93
-0.61436000 0.07547350 0.66756612 87 62 41
-0.61157818 0.07531732 0.66425365 190 169 150
-0.51523130 0.07500132 0.57998254 169 195 232
-0.51418343 0.07504010 0.57931847 171 197 234
-0.64589692 0.07661903 0.69363427 58 41 25
-0.60450979 0.07593314 0.65449321 107 112 106
-0.59482557 0.07506943 0.64119435 86 80 89
-0.05742900 0.12418231 0.47454735 81 156 237
-0.62877402 0.07715539 0.67482312 160 129 98
-0.60570388 0.07705948 0.65485400 139 143 150
-0.57392276 0.07540192 0.61850019 101 81 77
-0.29717597 0.09541861 0.49502693 152 172 198
-0.07067981 0.12499397 0.47482268 88 153 224
-0.61608279 0.07964756 0.66409549 172 137 97
-0.18414036 0.11318942 0.49489571 134 188 247
-0.64510669 0.08035555 0.68496282 89 71 56
-0.59705150 0.07840441 0.63461272 168 191 232
-0.11670645 0.12441602 0.49464955 84 152 237
-0.10428975 0.12508959 0.48817111 43 150 238
-0.63644440 0.08108539 0.67491426 90 74 51
-0.60513355 0.08025042 0.64477988 88 109 141
-0.62583315 0.08203537 0.66465531 172 144 105
-0.61737870 0.08253176 0.65388755 200 164 116
-0.44425475 0.08502217 0.52770886 116 153 208
-0.43481176 0.08526423 0.52139099 123 154 200
-0.40440094 0.08538429 0.49753978 146 174 213
-0.20341350 0.11338801 0.48450654 127 171 225
-0.60541042 0.08189544 0.63457315 161 164 183
-0.59649663 0.08129800 0.62431228 189 208 241
-0.46009120 0.08501216 0.53467872 89 166 238
-0.45427342 0.08526909 0.53137213 109 153 206
-0.64687937 0.08513290 0.67813498 76 52 26
-0.64430254 0.08513920 0.67612024 148 124 97
-0.64170398 0.08512553 0.67398496 100 77 60
-0.58801349 0.08195943 0.61495692 180 197 227
-0.47497496 0.08507863 0.54127299 111 142 196
-0.46424113 0.08557205 0.53529592 97 151 220
-0.14940967 0.12500570 0.48904246 130 183 246
-0.63456505 0.08581238 0.66548170 94 73 56
-0.63319311 0.08573786 0.66401860 94 73 56
-0.62483908 0.08513165 0.65433189 79 55 29
-0.61641913 0.08432376 0.64356426 152 122 76
-0.48314522 0.08503735 0.54200415 115 148 202
-0.15678068 0.12505077 0.48850768 138 184 239
-0.14760190 0.12567466 0.48444505 100 166 240
-0.64619591 0.08710372 0.67489032 94 70 44
-0.63544825 0.08673354 0.66459715 92 69 55
-0.62693300 0.08601754 0.65431404 99 75 49
-0.61848336 0.08518805 0.64351104 203 169 124
-0.49410818 0.08501143 0.54507129 110 146 204
-0.49312915 0.08506893 0.54459290 110 146 204
-0.61371030 0.08538623 0.63484220 39 26 8
-0.60574949 0.08461889 0.62482469 200 208 226
-0.59505738 0.08427913 0.61480288 190 205 234
-0.50989411 0.08506008 0.55230449 156 189 232
-0.50498023 0.08530285 0.54968071 120 161 207
-0.60780295 0.08548398 0.62497449 12 9 19
-0.60399248 0.08518135 0.62053838 191 204 230
-0.59700812 0.08504673 0.61446766 166 169 200
-0.59475306 0.08505075 0.61274045 183 186 215
-0.58474443 0.08510849 0.60527038 80 79 96
-0.58362914 0.08510061 0.60436783 30 21 34
-0.57487025 0.08513987 0.59777524 28 43 71
-0.57054490 0.08517035 0.59457408 66 89 104
-0.56400836 0.08506131 0.58897574 60 65 69
-0.61656309 0.08705476 0.63372309 146 118 81
-0.58561214 0.08588753 0.60423836 97 112 141
-0.52164999 0.08501877 0.55078025 150 188 235
-0.62566301 0.08876026 0.64324618 95 74 53
-0.53436789 0.08529792 0.55680598 183 191 224
-0.37141561 0.09507696 0.47883432 187 202 223
-0.30434814 0.10493288 0.47462701 141 165 203
-0.63634752 0.09059467 0.65444013 215 197 177
-0.57653992 0.08755797 0.59458213 7 67 135
-0.60591859 0.08815005 0.61439293 45 65 87
-0.61677907 0.08973345 0.62464809 78 81 70
-0.59552991 0.08886689 0.60466392 45 61 91
-0.63516399 0.09230395 0.64489060 177 138 85
-0.62557786 0.09134976 0.63337104 109 77 56
-0.40657688 0.09500267 0.48610426 191 204 223
-0.40459647 0.09525423 0.48576767 187 202 225
-0.58535687 0.09052664 0.59450494 21 16 12
-0.55507542 0.08896865 0.56495241 133 150 161
-0.61582894 0.09227689 0.61496089 91 74 56
-0.57546325 0.09213681 0.58461000 93 108 102
-0.56653416 0.09126870 0.57421581 134 136 126
-0.44661078 0.09502364 0.50238428 184 199 222
-0.44481160 0.09508588 0.50133259 184 199 220
-0.63565171 0.09451973 0.63435796 235 191 128
-0.62657727 0.09378080 0.62449554 187 142 85
-0.60611238 0.09257924 0.60427428 11 9 0
-0.45966420 0.09501882 0.50754663 188 200 222
-0.43424186 0.09526675 0.48999231 189 204 225
-0.63622388 0.09517656 0.63264580 194 150 87
-0.63483959 0.09501243 0.63093102 217 173 110
-0.47360084 0.09502705 0.51341258 185 201 224
-0.63149043 0.09530509 0.62488169 210 166 103
-0.59786285 0.09397781 0.59483894 148 149 141
-0.48121509 0.09502276 0.51463324 191 205 231
-0.22467563 0.12475074 0.45480985 157 176 208
-0.62469868 0.09547870 0.61594889 138 94 65
-0.62348217 0.09539984 0.61473892 103 67 20
-0.61416460 0.09501557 0.60639509 96 78 57
-0.58504985 0.09488703 0.58482931 187 175 181
-0.49601044 0.09505171 0.52122085 204 213 230
-0.49417061 0.09515030 0.52030656 204 213 230
-0.36539616 0.10510946 0.46916900 204 213 230
-0.62534980 0.09615116 0.61457345 87 43 16
-0.61379649 0.09571881 0.60447229 97 78 57
-0.60488598 0.09550002 0.59715841 87 72 53
-0.60159272 0.09542694 0.59448765 77 65 51
-0.59415999 0.09544407 0.58921671 70 60 50
-0.58688177 0.09555011 0.58442639 102 94 91
-0.58482133 0.09558911 0.58310762 98 89 85
-0.57425719 0.09530767 0.57434476 155 162 190
-0.56562269 0.09452153 0.56487072 94 125 177
-0.55533945 0.09388588 0.55483724 137 177 229
-0.61566374 0.09646416 0.60435989 93 81 69
-0.57624936 0.09617970 0.57499354 94 107 97
-0.56649854 0.09524141 0.56415931 128 172 220
-0.56441377 0.09509979 0.56208551 141 185 232
-0.54537790 0.09417141 0.54464959 124 170 229
-0.50724677 0.09500706 0.52080765 191 206 235
-0.60530489 0.09687835 0.59421228 90 75 56
-0.55812868 0.09537208 0.55448932 130 170 222
-0.55413908 0.09519987 0.55094767 120 169 227
-0.52006747 0.09503286 0.52600552 187 201 228
-0.54817937 0.09567827 0.54453813 124 172 231
-0.54428736 0.09548070 0.54098374 131 169 222
-0.53665189 0.09519510 0.53442122 160 185 220
-0.53477735 0.09517130 0.53299653 178 195 225
-0.59716255 0.09808622 0.58467452 112 96 81
-0.62510916 0.10033366 0.60469719 154 114 81
-0.58644209 0.09955793 0.57461620 110 93 75
-0.57596348 0.09998247 0.56490461 172 161 141
-0.56556971 0.09916146 0.55449186 123 169 224
-0.60544466 0.10085240 0.58472978 108 86 65
-0.55556598 0.09937021 0.54445528 138 170 221
-0.61652220 0.10240319 0.59426129 148 135 126
-0.27787637 0.12475297 0.44488321 184 201 229
-0.59557406 0.10211456 0.57475845 174 153 133
-0.54677813 0.10033598 0.53450959 145 173 221
-0.53555472 0.09982784 0.52488070 165 187 224
-0.35834800 0.11510014 0.46018229 207 218 236
-0.43602224 0.10515288 0.46934494 192 206 232
-0.37088457 0.11506297 0.46130562 214 225 243
-0.62799834 0.10527173 0.59695328 170 192 229
-0.62480440 0.10525500 0.59471993 169 191 228
-0.61428036 0.10521675 0.58742251 77 80 93
-0.58777106 0.10400087 0.56496402 121 103 80
-0.62655025 0.10592411 0.59449061 171 193 230
-0.61176878 0.10575643 0.58386992 169 191 222
-0.60397509 0.10510311 0.57623231 109 97 110
-0.60189117 0.10504165 0.57459860 86 80 63
-0.57567494 0.10447941 0.55480656 124 110 84
-0.46686997 0.10503828 0.48309701 217 226 243
-0.46432129 0.10515845 0.48180352 208 220 242
-0.45437921 0.10523310 0.47533607 202 214 236
-0.45359101 0.10517625 0.47459695 202 214 236
-0.59448377 0.10555042 0.56772689 66 49 33
-0.59042985 0.10545258 0.56464062 125 107 83
-0.58433435 0.10521141 0.55966395 138 121 102
-0.57749294 0.10519215 0.55497673 103 89 63
-0.57451952 0.10508685 0.55259316 152 138 111
-0.56561410 0.10460686 0.54486624 149 181 225
-0.47563478 0.10501835 0.48559463 227 234 250
-0.47477511 0.10508851 0.48526499 229 236 252
-0.56647308 0.10531325 0.54442823 151 182 224
-0.56451034 0.10518514 0.54265455 141 178 232
-0.55579223 0.10459617 0.53470579 143 175 222
-0.49364190 0.10502350 0.49441717 225 232 248
-0.61557593 0.10834703 0.58449907 154 183 227
-0.55665155 0.10527882 0.53424847 141 175 223
-0.55475836 0.10518159 0.53263867 146 180 228
-0.50148040 0.10503529 0.49642118 215 224 241
-0.49718667 0.10537289 0.49472789 224 231 249
-0.60650815 0.10836145 0.57486598 154 192 241
-0.54631809 0.10546024 0.52458947 160 184 222
-0.54447207 0.10535416 0.52298809 163 185 222
-0.52309505 0.10505496 0.50767338 30 23 23
-0.51789586 0.10527958 0.50498224 31 38 36
-0.51442922 0.10523712 0.50251980 195 202 233
-0.59673423 0.10839440 0.56493384 90 68 54
-0.53625508 0.10553235 0.51483216 173 194 225
-0.53446899 0.10546290 0.51340445 175 196 227
-0.58543293 0.10858126 0.55462057 166 186 223
-0.62523605 0.11063062 0.58448184 17 13 12
-0.34635476 0.12501842 0.44886212 198 214 240
-0.57626874 0.10950626 0.54499413 161 193 237
-0.52658797 0.10725993 0.50474019 172 195 227
-0.61702227 0.11145835 0.57496952 20 20 20
-0.42083090 0.11501455 0.45800443 198 210 236
-0.41429110 0.11525814 0.45452125 192 206 232
-0.40431480 0.11502432 0.44719518 200 212 236
-0.35779336 0.12504788 0.44997824 175 198 235
-0.60538214 0.11161568 0.56451870 156 190 236
-0.56551083 0.11035247 0.53426838 133 179 231
-0.55506978 0.10948087 0.52456451 140 177 229
-0.42552063 0.11507164 0.45822701 195 211 237
-0.40335828 0.11535738 0.44466814 201 211 236
-0.51557539 0.10923365 0.49489010 48 32 26
-0.59750038 0.11214176 0.55460293 168 196 235
-0.54582324 0.11015735 0.51457887 165 187 224
-0.39585011 0.11557581 0.43463501 215 223 242
-0.61875931 0.11195935 0.56462964 8 6 7
-0.58650992 0.11229275 0.54480107 76 63 46
-0.53516015 0.11011379 0.50452382 172 193 224
-0.43861675 0.11510740 0.45799903 200 215 238
-0.37432479 0.12377747 0.44418517 207 218 241
-0.60576678 0.11239311 0.55446803 30 20 25
-0.57652972 0.11208888 0.53461021 131 181 235
-0.20626420 0.13391673 0.36493180 30 132 239
-0.44687842 0.11509218 0.45757482 199 213 238
-0.61554590 0.11239340 0.55463271 12 8 9
-0.59882038 0.11264841 0.54469160 100 96 102
-0.52738447 0.11131256 0.49463445 188 197 222
-0.58638188 0.11292303 0.53460501 79 65 44
-0.56618096 0.11391273 0.52474743 105 170 242
-0.55513066 0.11302521 0.51491462 161 185 223
-0.37439100 0.12411281 0.43365613 206 216 241
-0.23924540 0.13299804 0.37474414 155 183 233
-0.21921621 0.13397867 0.36496831 74 145 233
-0.19880390 0.13490692 0.35478443 63 142 232
-0.60757557 0.11266301 0.54442045 15 7 4
-0.45776656 0.11507568 0.45622695 170 186 219
-0.54601779 0.11330429 0.50430153 172 191 223
-0.51747484 0.11284444 0.48472780 197 199 233
-0.22718079 0.13401928 0.36470381 87 145 227
-0.61543589 0.11289497 0.54436254 11 9 10
-0.59835470 0.11325130 0.53460233 33 22 16
-0.57679302 0.11455861 0.52488320 178 198 223
-0.57170956 0.11500547 0.52301239 156 184 224
-0.53643526 0.11298601 0.49449841 157 164 187
-0.21196278 0.13479391 0.35471549 34 134 222
-0.58545325 0.11363627 0.52479087 206 216 224
-0.56434887 0.11523021 0.51623113 162 190 229
-0.56255812 0.11514236 0.51483340 163 189 229
-0.46516206 0.11520490 0.45338047 160 180 213
-0.37441427 0.12379883 0.42181080 203 215 239
-0.23693154 0.13377382 0.36481934 127 158 215
-0.21579681 0.13486396 0.35472418 41 129 227
-0.60771014 0.11317711 0.53471948 16 12 13
-0.57697957 0.11503316 0.52086667 52 46 51
-0.52722441 0.11351037 0.48491773 199 202 215
-0.51030803 0.11503716 0.47880030 69 58 48
-0.50466250 0.11528258 0.47597006 184 204 234
-0.50225207 0.11532888 0.47458701 183 204 235
-0.49429114 0.11523865 0.46929320 177 198 232
-0.48801482 0.11504772 0.46476193 163 185 222
-0.56893886 0.11554776 0.51460811 162 191 231
-0.55499762 0.11516705 0.50470565 166 192 229
-0.51679866 0.11501786 0.48022145 202 215 235
-0.59783863 0.11372861 0.52472134 12 7 4
-0.55736671 0.11548126 0.50447044 177 195 226
-0.54685959 0.11435314 0.49455866 198 209 227
-0.50640865 0.11618691 0.47455939 195 201 232
-0.37490381 0.12347474 0.41344159 197 213 239
-0.22808093 0.13491448 0.35491522 143 175 225
-0.57837112 0.11542985 0.51485258 81 65 50
-0.53981465 0.11344625 0.48492912 106 81 65
-0.52722186 0.11502733 0.48165870 179 200 232
-0.48484016 0.11501945 0.45510468 161 181 218
-0.60537545 0.11386171 0.52456170 33 23 22
-0.58540625 0.11507182 0.51559766 28 18 16
-0.49552594 0.11693768 0.46488352 176 199 230
-0.48576522 0.11535023 0.45419335 159 179 216
-0.23673648 0.13473308 0.35483243 141 169 219
-0.58833485 0.11511866 0.51498089 23 12 8
-0.56757607 0.11605371 0.50474093 179 200 231
-0.55475290 0.11544196 0.49499794 170 187 217
-0.54523069 0.11397102 0.48484165 86 75 55
-0.53668589 0.11511779 0.48281588 192 195 219
-0.59577801 0.11436450 0.51491067 16 12 11
-0.59498983 0.11445440 0.51467751 16 12 11
-0.55705099 0.11573267 0.49475911 182 200 230
-0.51696291 0.11752375 0.47496830 175 196 227
-0.57525019 0.11620757 0.50491011 89 71 57
-0.50520966 0.11734488 0.46473800 194 195 214
-0.37273261 0.12477187 0.40368997 145 186 238
-0.59676545 0.11503511 0.51244105 15 10 7
-0.48670045 0.11513626 0.44470941 157 179 216
-0.44099436 0.12503756 0.44428690 173 198 239
-0.43494734 0.12502846 0.44052447 156 187 231
-0.60589275 0.11451795 0.51418172 40 25 20
-0.56622079 0.11640671 0.49499548 185 202 230
-0.55425765 0.11504371 0.48381921 62 56 42
-0.49623245 0.11746882 0.45481570 157 180 212
-0.48471033 0.11518684 0.44134789 153 175 212
-0.44682906 0.12503018 0.44545380 169 191 232
-0.44523500 0.12517639 0.44487901 166 188 229
-0.42787764 0.12531573 0.43456821 63 147 233
-0.42490359 0.12532549 0.43276217 52 133 222
-0.58712877 0.11611025 0.50464192 16 12 11
-0.55806503 0.11529097 0.48450171 46 33 31
-0.55632570 0.11495324 0.48249697 65 52 51
-0.52570953 0.11895201 0.47474391 168 191 222
-0.00539694 -0.25712215 0.66846498 100 91 84
0.04254294 -0.22264135 0.53981454 103 90 82
0.04035556 -0.21683585 0.53427762 103 90 81
0.04211540 -0.21424564 0.53665204 95 83 71
0.04177314 -0.21363587 0.53488808 110 97 88
0.04518100 -0.21225669 0.53442013 116 103 94
0.04683464 -0.21141996 0.67489466 92 82 70
0.08644534 -0.17681474 0.53920034 36 26 17
0.09673079 -0.16895133 0.54107238 134 120 111
0.05525577 -0.19502078 0.67342090 51 39 27
0.09791703 -0.16340447 0.54167277 62 48 37
0.10551477 -0.15318310 0.54450804 104 88 75
0.11534895 -0.14110731 0.54813181 134 120 109
-0.37245101 -0.14574183 0.84607812 99 89 77
-0.40194037 -0.13513293 0.86595977 92 80 64
-0.40433987 -0.13379215 0.86902926 106 94 78
-0.40605037 -0.13205955 0.86974169 86 71 57
-0.37699377 -0.12566544 0.82453319 117 105 90
-0.41286683 -0.12450365 0.86885175 116 100 85
-0.41609102 -0.12114404 0.87056539 108 94 81
-0.25901887 -0.12501659 0.84315207 98 84 71
0.36691392 -0.11052828 0.55869850 109 95 86
0.13633953 -0.09372111 0.54576141 96 82 73
0.36350467 -0.10774086 0.55793267 166 152 143
-0.41502702 -0.11510874 0.85486456 159 145 132
0.36031584 -0.10498855 0.55722138 60 46 37
-0.40532475 -0.10891574 0.82469398 77 63 52
-0.33341354 -0.10589802 0.78487679 97 83 70
-0.42276730 -0.11435196 0.87347903 110 97 81
-0.36444952 -0.10466463 0.79683261 113 96 82
-0.30358226 -0.10723431 0.79491407 97 83 72
0.35370996 -0.09983969 0.55780114 92 79 70
-0.37474008 -0.10393237 0.80564373 119 107 91
-0.42647683 -0.11082799 0.87413442 100 87 71
0.34979583 -0.09462786 0.55698480 112 99 90
-0.42664023 -0.10731715 0.86275927 120 107 91
-0.26089534 -0.10824388 0.82411750 85 71 59
-0.25406694 -0.10649656 0.82344847 86 73 57
-0.23488903 -0.10745930 0.82469240 91 77 64
-0.22436819 -0.10786458 0.82457710 84 70 57
-0.43283974 -0.10586874 0.87722935 162 149 133
-0.43212700 -0.10494854 0.87099301 131 118 102
-0.31473472 -0.09636452 0.78481076 123 109 98
-0.29381838 -0.09852271 0.79372485 135 122 106
-0.23905946 -0.10509724 0.82314564 114 98 83
-0.43508049 -0.10456882 0.88060878 163 150 134
-0.43456102 -0.10416545 0.87778999 165 152 136
-0.41552128 -0.09693547 0.82488656 104 91 75
-0.39323373 -0.09480810 0.80524005 96 84 67
-0.43626404 -0.10189246 0.87446751 165 152 136
-0.40425660 -0.09429608 0.81550496 113 100 84
-0.43615841 -0.09858092 0.86346978 130 117 101
-0.27065491 -0.09551356 0.80483122 96 80 65
-0.43501616 -0.09569494 0.85489455 169 156 140
-0.25389922 -0.09533370 0.81290352 90 74 59
-0.40645097 -0.08620422 0.79369141 101 88 71
-0.44538842 -0.09605204 0.88355842 137 125 111
-0.44409418 -0.09481805 0.87444728 113 100 84
-0.44752680 -0.09421928 0.88312157 93 81 67
-0.44609515 -0.09304597 0.87430422 135 121 108
-0.44687714 -0.08530627 0.85421533 156 143 127
-0.45880072 -0.08767340 0.88715643 140 126 113
-0.45854572 -0.08721960 0.88359838 129 115 102
-0.45548633 -0.08608952 0.87438461 146 132 119
-0.45286235 -0.08485945 0.86445845 130 117 103
-0.41602756 -0.07650942 0.79430439 101 88 72
-0.46054619 -0.08493366 0.87921192 144 130 116
-0.45800908 -0.08417988 0.87292660 119 105 89
-0.46387089 -0.08433081 0.88828285 112 98 87
-0.46653134 -0.08288673 0.89063577 99 85 74
-0.46602289 -0.08200614 0.88339697 108 94 82
-0.22485227 -0.07549406 0.80386605 156 140 124
-0.46668160 -0.07916351 0.87383705 129 115 104
-0.46622663 -0.07623425 0.86309668 117 101 86
-0.39414792 -0.06443997 0.75748029 117 100 84
-0.47023659 -0.07489543 0.86597124 112 99 90
-0.46922114 -0.07471607 0.86435860 93 80 71
-0.46454585 -0.07372154 0.85548248 102 86 71
-0.47664656 -0.07526010 0.88387887 132 118 107
-0.47645741 -0.07482730 0.88007827 155 141 130
-0.47560143 -0.07411385 0.87378336 125 113 99
-0.42617874 -0.06529225 0.79381596 115 99 84
-0.47623630 -0.07139886 0.86428205 81 69 55
-0.39462641 -0.05470673 0.73903339 108 91 75
-0.48671653 -0.06691857 0.86797526 122 109 100
-0.48561175 -0.06633177 0.86243719 123 110 101
-0.41255404 -0.05495870 0.75553789 115 99 84
-0.40480711 -0.05389513 0.74554864 120 104 88
-0.48878048 -0.06478984 0.86298086 125 112 103
-0.42546172 -0.05548638 0.77488503 104 88 73
-0.49520722 -0.06127296 0.85944604 117 105 93
-0.49731905 -0.06043541 0.86694151 127 113 100
-0.49780572 -0.05907272 0.85290497 133 120 108
-0.41436451 -0.04494274 0.72964545 89 73 57
-0.17192851 -0.04875957 0.79480507 114 101 84
-0.42440650 -0.04439840 0.73818383 108 92 76
-0.24186815 -0.04568960 0.77487895 129 113 95
-0.16409311 -0.04656584 0.79401455 101 88 71
-0.50456097 -0.05482015 0.85681986 135 123 111
-0.50442296 -0.05446485 0.85293766 127 115 103
-0.50655457 -0.05398300 0.86464438 143 131 119
-0.50675319 -0.05278395 0.85112814 135 123 111
-0.50674924 -0.05203866 0.84274873 127 115 103
-0.44458747 -0.04487267 0.77282645 107 92 73
-0.10612645 -0.04078469 0.78486192 79 69 59
-0.45429914 -0.04467856 0.78589636 137 121 106
-0.51081553 -0.05106838 0.86651904 135 121 110
-0.46432935 -0.04445293 0.79876605 109 96 81
-0.08543582 -0.03530138 0.77496269 91 79 67
-0.48787353 -0.04495569 0.81730332 137 123 111
-0.48399231 -0.04471828 0.81539868 121 107 95
-0.47480781 -0.04388079 0.80755428 162 148 134
-0.41341655 -0.03492174 0.71443553 111 95 79
-0.25317304 -0.03571430 0.76403877 95 79 58
-0.51559341 -0.04841788 0.87136373 121 105 92
-0.42648882 -0.03489434 0.72819528 112 96 81
-0.42444939 -0.03468264 0.72613372 128 113 94
-0.42243744 -0.03446862 0.72403558 119 104 85
-0.51737195 -0.04722178 0.87565999 146 130 115
-0.51735075 -0.04614787 0.86196765 129 113 100
-0.51687723 -0.04554763 0.85445735 135 119 106
-0.51638427 -0.04496461 0.84717256 128 114 101
-0.51610451 -0.04468454 0.84368634 116 102 89
-0.44127876 -0.03491002 0.74211920 116 100 85
-0.11698452 -0.03040327 0.78481878 120 107 98
-0.51960710 -0.04485908 0.86466606 149 133 118
-0.45361086 -0.03498781 0.75777303 108 91 77
-0.16385396 -0.02950609 0.78473293 98 84 71
-0.52195465 -0.04459970 0.88125718 150 134 119
-0.52170110 -0.04394669 0.87254853 149 133 118
-0.46417439 -0.03437861 0.76512539 141 125 110
-0.21174228 -0.02807295 0.77476930 108 91 73
-0.15171280 -0.02716100 0.78498405 132 120 106
-0.52369748 -0.04339566 0.88584760 142 126 110
-0.48435297 -0.03469035 0.78121445 130 116 103
-0.52616092 -0.04204290 0.88818092 147 131 115
-0.52613303 -0.04170348 0.88334128 148 132 116
-0.52617163 -0.04101966 0.87354854 154 138 122
-0.52599068 -0.04039441 0.86469159 142 126 110
-0.52535077 -0.03955204 0.85293697 135 119 104
-0.49800305 -0.03488953 0.79856402 135 121 109
-0.49464540 -0.03434858 0.79233858 135 121 108
-0.52668982 -0.03752280 0.84479347 139 123 108
-0.51433215 -0.03499577 0.81359325 125 111 98
-0.42509352 -0.02491167 0.70863209 117 100 84
-0.42437789 -0.02479265 0.70722797 101 85 69
-0.42302310 -0.02455084 0.70432686 148 132 116
-0.35769174 -0.02382636 0.72562683 112 95 75
-0.52647766 -0.03522365 0.83277796 144 128 113
-0.52508778 -0.03488698 0.82839626 145 130 115
-0.52431510 -0.03473259 0.82645873 151 138 122
-0.52353316 -0.03458060 0.82456296 151 138 122
-0.43659468 -0.02493755 0.72415664 117 101 85
-0.43483260 -0.02471756 0.72174820 118 102 87
-0.53129045 -0.03497501 0.84930686 159 143 127
-0.53039994 -0.03454657 0.84308735 149 133 118
-0.45085989 -0.02495337 0.73830886 126 110 95
-0.44478001 -0.02434390 0.73224613 117 101 84
-0.53658963 -0.03588687 0.88525815 141 128 113
-0.53635267 -0.03561582 0.88099986 141 128 112
-0.53563782 -0.03512407 0.87345317 143 127 111
-0.53507042 -0.03491721 0.87044596 143 127 111
-0.53465888 -0.03468689 0.86695942 151 136 119
-0.53422073 -0.03446342 0.86360103 146 130 115
-0.46402195 -0.02488044 0.75185332 101 89 77
-0.53882975 -0.03427754 0.88308275 155 142 126
-0.53640892 -0.03290471 0.86161445 155 139 123
-0.53572663 -0.03244830 0.85439374 156 140 124
-0.47445117 -0.02411784 0.75581565 81 69 57
-0.53656634 -0.03031736 0.84288669 150 135 118
-0.53665605 -0.02835100 0.83403041 164 148 133
-0.51491976 -0.02483506 0.78763298 119 104 90
-0.51320598 -0.02460225 0.78477980 129 114 101
-0.54500779 -0.02960921 0.87811998 147 131 115
-0.52820226 -0.02497211 0.80521810 173 157 141
-0.52470406 -0.02450138 0.79936526 165 149 133
-0.54691285 -0.02783508 0.87177665 147 131 115
-0.54522143 -0.02729015 0.86265862 140 127 111
-0.54640693 -0.02542122 0.85408521 138 125 109
-0.54486909 -0.02490181 0.84500187 163 151 135
-0.54434257 -0.02473364 0.84208991 163 151 135
-0.54285918 -0.02422812 0.83323593 160 147 131
-0.55061670 -0.02487180 0.86958864 148 131 113
-0.55000909 -0.02446811 0.86161072 135 119 103
-0.54846810 -0.02395079 0.85222330 140 127 111
-0.54686162 -0.02345588 0.84338757 146 133 117
-0.54525515 -0.02297492 0.83485048 158 146 130
-0.32379107 -0.00554872 0.70456979 89 72 52
-0.55529735 -0.02206582 0.86880983 145 129 113
-0.15040125 0.00498296 0.75454475 100 86 75
-0.55690161 -0.02042777 0.86326506 141 126 109
-0.55565547 -0.01992620 0.85258303 128 112 97
-0.55663784 -0.01820392 0.84449519 157 141 125
-0.43455999 -0.00455507 0.67405540 117 100 82
-0.55686288 -0.01640222 0.83443337 153 141 128
-0.44846465 -0.00494697 0.69802117 136 119 105
-0.44470673 -0.00440803 0.68936544 138 122 106
-0.55707444 -0.01465366 0.82469016 180 167 151
-0.45892229 -0.00497936 0.71922195 109 96 80
-0.45604694 -0.00461048 0.71361798 117 103 90
-0.45473583 -0.00442809 0.71064537 124 110 97
-0.56627604 -0.01497705 0.86063399 146 134 120
-0.56524042 -0.01470294 0.85410875 163 159 148
-0.47402210 -0.00494015 0.73052252 109 97 85
-0.56563715 -0.01293250 0.84272226 163 159 148
-0.36556883 0.00511201 0.67768647 133 115 96
-0.56568052 -0.01123347 0.83299470 162 153 142
-0.50417752 -0.00443532 0.73711555 111 97 81
-0.56560496 -0.00958542 0.82397735 162 150 138
-0.52329089 -0.00493513 0.75657692 161 149 133
-0.53484484 -0.00479257 0.77213237 138 125 109
-0.43471350 0.00510137 0.65337661 138 125 109
-0.02019552 0.03499038 0.63495601 122 110 96
-0.57619329 -0.00847075 0.86639000 169 152 133
-0.57593683 -0.00835471 0.86181313 160 144 128
-0.57523627 -0.00813013 0.85365523 142 126 110
-0.56709765 -0.00670562 0.81456812 154 142 130
-0.54493679 -0.00446452 0.78513043 173 160 144
-0.44472924 0.00533642 0.66766899 128 112 97
-0.44282403 0.00555777 0.66379012 81 68 52
-0.04620782 0.03466150 0.65433567 116 104 92
-0.57542155 -0.00649160 0.84257765 176 164 150
-0.56454901 -0.00497447 0.80575232 169 161 150
-0.45476833 0.00558396 0.68250986 129 113 100
-0.57595960 -0.00499699 0.83558545 173 153 129
-0.57549236 -0.00490524 0.83229572 180 160 136
-0.57491067 -0.00481328 0.82950801 166 146 122
-0.57354935 -0.00462923 0.82481353 119 103 88
-0.57019741 -0.00417752 0.81334126 152 138 125
-0.47169178 0.00508573 0.71180941 92 78 67
-0.46472238 0.00585114 0.69816360 79 67 55
-0.58162971 -0.00469063 0.87926032 189 153 105
-0.58130934 -0.00459705 0.87466385 177 141 93
-0.58091900 -0.00441616 0.86457733 173 144 104
-0.57988543 -0.00414764 0.85198946 143 111 72
-0.57505380 -0.00335718 0.82433345 142 126 112
-0.48824131 0.00500752 0.71915015 112 96 81
-0.48472520 0.00530539 0.71763556 116 100 87
-0.57526934 -0.00051100 0.81447730 161 145 130
-0.51491375 0.00536078 0.72740700 163 150 133
-0.58587741 -0.00059662 0.87965034 135 95 68
-0.58522959 -0.00046321 0.87036974 131 109 81
-0.53214090 0.00503883 0.74644177 161 146 130
-0.52491610 0.00573972 0.73518824 176 162 149
-0.42486359 0.01504009 0.62692861 149 134 115
-0.58594970 0.00099109 0.86157611 139 119 95
-0.58554303 0.00108891 0.85173739 134 118 102
-0.57562112 0.00224100 0.80437089 164 149 133
-0.54434314 0.00518396 0.76259367 141 128 112
-0.43485461 0.01535917 0.63611708 96 83 67
-0.58628325 0.00248038 0.84323240 129 113 97
-0.45182176 0.01502340 0.65667686 106 92 81
-0.44466005 0.01569630 0.64561217 111 95 79
-0.11280759 0.04447141 0.69472680 109 96 82
-0.58620388 0.00391012 0.83299399 59 43 27
-0.56494331 0.00590786 0.78553912 133 120 104
-0.46485955 0.01506860 0.67519120 109 97 85
-0.58919794 0.00501661 0.84818690 180 162 140
-0.58891565 0.00504242 0.84371482 180 162 140
-0.58756037 0.00516601 0.83298361 41 28 12
-0.58488098 0.00541003 0.82312567 122 101 83
-0.58206723 0.00566623 0.81430015 127 105 81
-0.57968739 0.00588301 0.80415932 127 109 87
-0.47473270 0.01543370 0.68537474 89 78 66
-0.59309960 0.00612611 0.87916872 166 151 130
-0.59221382 0.00619059 0.87073497 180 165 144
-0.59143447 0.00624472 0.86206804 178 163 142
-0.58625360 0.00664340 0.82299408 119 94 75
-0.49313138 0.01502641 0.70069033 120 104 89
-0.06652399 0.05450937 0.65468399 129 113 98
-0.50499978 0.01519816 0.70715042 127 112 93
-0.39624913 0.02502201 0.59762669 143 127 103
-0.59544385 0.00880521 0.87500259 191 176 155
-0.59502625 0.00881773 0.87063569 191 176 155
-0.58614393 0.00931394 0.81396265 111 86 66
-0.59574985 0.01011141 0.86121930 140 125 104
-0.59508903 0.01009901 0.85210584 133 118 97
-0.58507357 0.01067248 0.80374215 103 84 54
-0.53374935 0.01504666 0.72514859 190 174 158
-0.52495640 0.01583019 0.71570914 154 141 125
-0.59568857 0.01135533 0.84370947 84 79 76
-0.54451190 0.01533668 0.73648122 167 154 142
-0.59564630 0.01260637 0.83272244 70 62 60
-0.58561503 0.01311768 0.79266588 106 85 58
-0.56202777 0.01506870 0.75725406 107 97 88
-0.55425890 0.01578214 0.75115092 161 152 147
-0.44422297 0.02541253 0.62745955 109 93 80
-0.04473292 0.06583751 0.60710371 121 108 92
-0.59525674 0.01387656 0.82371797 48 40 38
-0.58531358 0.01432923 0.78484518 78 70 59
-0.46281419 0.02503353 0.65078611 94 81 65
-0.45433318 0.02572140 0.63792517 136 119 101
-0.08719685 0.06416869 0.66428838 154 138 122
-0.60642644 0.01525660 0.89505065 45 36 29
-0.60583819 0.01525082 0.89106087 47 37 27
-0.60469918 0.01523543 0.88308863 106 96 86
-0.60303437 0.01521273 0.87142358 137 111 86
-0.60144455 0.01518567 0.85996806 177 162 129
-0.60048477 0.01515385 0.85214138 92 74 61
-0.59959251 0.01511365 0.84424048 68 56 56
-0.59817333 0.01507690 0.83327323 65 60 57
-0.59652975 0.01509065 0.82388445 77 69 67
-0.59451620 0.01517918 0.81659933 90 74 85
-0.59379155 0.01521951 0.81447625 90 76 77
-0.59041506 0.01538353 0.80317578 137 119 95
-0.58822838 0.01543266 0.79249829 111 90 63
-0.47676041 0.02505530 0.66697604 127 115 103
-0.47496802 0.02521590 0.66530303 119 107 95
-0.47409908 0.02529261 0.66442413 124 112 100
-0.61348988 0.01669360 0.93254647 59 51 48
-0.60621850 0.01651231 0.88228905 40 26 15
-0.60505972 0.01649105 0.87467889 92 78 66
-0.59511612 0.01640385 0.81435377 84 82 85
-0.48956686 0.02508226 0.67607091 162 149 133
-0.01652285 0.07408769 0.58488742 99 95 94
-0.61620449 0.01794684 0.93275674 47 39 36
-0.50226900 0.02505938 0.68263721 122 106 90
-0.02562906 0.07497802 0.58470954 63 62 60
-0.61531929 0.01933390 0.92198773 57 49 45
-0.60615330 0.01897106 0.86301503 161 131 111
-0.51431185 0.02517436 0.69273408 154 141 124
-0.04375647 0.07516550 0.59868791 108 96 82
-0.60579180 0.02014851 0.85228045 169 142 100
-0.59633324 0.02000580 0.80491386 9 5 0
-0.52482479 0.02540410 0.70058676 170 154 138
-0.05466882 0.07605597 0.60857043 120 104 88
-0.60553717 0.02126475 0.84137180 211 189 151
-0.59531245 0.02113592 0.79436494 194 169 143
-0.53414214 0.02567888 0.70527631 168 153 134
-0.42442782 0.03525555 0.59713948 72 60 46
-0.10475670 0.07345679 0.65442378 135 119 106
-0.01126882 0.08196390 0.57482014 109 105 104
-0.60580817 0.02238795 0.83427064 110 85 55
-0.55438084 0.02512545 0.72528038 64 47 30
-0.60538911 0.02348660 0.82481664 186 161 131
-0.59582483 0.02328310 0.78303398 36 16 7
-0.57091666 0.02507378 0.74691642 27 12 5
-0.56441940 0.02555041 0.73779379 117 97 86
-0.61561400 0.02531461 0.87541436 38 31 28
-0.61489866 0.02529501 0.87231826 41 33 31
-0.61287356 0.02520846 0.86264125 97 88 85
-0.61094052 0.02511013 0.85294293 47 36 32
-0.58442680 0.02514588 0.76057155 52 47 43
-0.46453972 0.03512565 0.63118772 78 68 59
-0.61704431 0.02653925 0.87478917 47 45 46
-0.61053743 0.02616145 0.84244790 156 128 106
-0.60888751 0.02599051 0.83217113 218 195 142
-0.60716143 0.02586183 0.82280543 121 96 66
-0.60449883 0.02582391 0.81279566 9 0 0
-0.60264371 0.02576696 0.80497767 7 5 6
