ply
format ascii 1.0
element vertex 1064
property float x
property float y
property float z
property uchar red
property uchar green
property uchar blue
end_header
-0.45461817 -0.08454581 0.91854102 130 115 103
-0.45580314 -0.08404607 0.91510433 142 128 115
-0.46544294 -0.07837551 0.89952326 132 118 105
-0.46557054 -0.07760590 0.90625470 129 115 102
-0.46997785 -0.07499518 0.88674242 106 93 78
-0.47034018 -0.07467155 0.88426559 107 95 79
-0.46052622 -0.07878671 0.92741040 173 159 146
-0.47050621 -0.07469812 0.89727147 85 71 58
-0.22245973 -0.07080130 0.79095738 95 81 68
-0.46533903 -0.07583437 0.91818904 88 74 61
-0.46805974 -0.07485821 0.91095540 110 97 81
-0.21449008 -0.06930079 0.79254929 139 125 112
-0.46518967 -0.07535547 0.92777730 81 68 54
-0.46611430 -0.07465592 0.92221139 100 86 73
-0.47548166 -0.07108420 0.89505900 116 102 89
-0.47612592 -0.07072756 0.89226854 80 66 53
-0.47611624 -0.06502692 0.84485671 112 99 83
-0.19986167 -0.06806734 0.79488857 163 149 136
-0.46727719 -0.07424297 0.93286583 105 93 79
-0.48343590 -0.06492649 0.85852906 90 76 63
-0.47607682 -0.06917555 0.90587618 115 101 90
-0.48437084 -0.06498990 0.87214842 113 99 88
-0.20302484 -0.06378347 0.79376067 122 108 95
-0.48449286 -0.06492447 0.88480607 96 82 71
-0.43337818 -0.05496118 0.78703677 87 74 58
-0.19172210 -0.06214224 0.79451274 113 99 86
-0.47406617 -0.06971648 0.93819999 92 76 61
-0.47523446 -0.06795274 0.92297587 109 95 82
-0.48426355 -0.06465766 0.89597076 111 97 86
-0.48515933 -0.06428851 0.89292097 97 83 72
-0.18176178 -0.06033710 0.79457460 100 86 73
-0.47563987 -0.06840044 0.94149275 126 110 97
-0.47744972 -0.06734735 0.93247795 131 115 100
-0.48127366 -0.06475907 0.91020071 98 84 71
-0.48502316 -0.06350575 0.89978009 89 75 62
-0.45486515 -0.05479230 0.81647013 110 94 78
-0.17244437 -0.05843165 0.79426941 82 68 55
-0.16206140 -0.05864817 0.79418878 84 70 57
-0.48024443 -0.06483899 0.92510737 97 83 70
-0.48045455 -0.06455547 0.92258770 114 100 87
-0.15150029 -0.05674092 0.79422452 119 105 92
-0.48097060 -0.06493803 0.94094003 153 139 128
-0.48597124 -0.06150084 0.91029472 127 111 96
-0.48519028 -0.06175483 0.92724274 103 89 76
-0.48552226 -0.06146323 0.92458363 103 89 76
-0.49548618 -0.05734619 0.88777908 89 76 62
-0.43476862 -0.04419231 0.75722415 125 109 93
-0.48584216 -0.06208136 0.94558482 93 83 71
-0.48633270 -0.06176359 0.94265256 101 91 79
-0.49543524 -0.05675756 0.89662517 139 126 110
-0.49975682 -0.05488531 0.87952228 93 79 66
-0.50070745 -0.05433250 0.87443293 108 94 81
-0.49897131 -0.05482078 0.89322728 128 115 99
-0.49531246 -0.05531743 0.91259567 84 74 62
-0.49609232 -0.05499590 0.90954069 89 79 67
-0.49827872 -0.05428603 0.90283406 96 84 72
-0.10216969 -0.04545207 0.78463190 153 141 125
-0.49501474 -0.05685193 0.94315604 88 74 66
-0.49513621 -0.05564354 0.93126116 99 87 75
-0.49590563 -0.05485069 0.92349903 96 84 72
-0.50503599 -0.05134942 0.88957401 104 91 79
-0.50003755 -0.04497274 0.82645756 102 86 74
-0.49557479 -0.05590838 0.94993715 109 96 87
-0.49744189 -0.05473567 0.93828066 95 82 73
-0.49763925 -0.05424407 0.93337078 93 81 69
-0.50578522 -0.05041878 0.89543143 97 85 73
-0.51246016 -0.04486864 0.84017742 87 75 61
-0.43450206 -0.03481911 0.73649891 128 111 97
-0.12081661 -0.04090196 0.78470104 158 146 130
-0.49821749 -0.05447252 0.95195080 89 77 68
-0.51489091 -0.04495669 0.85554880 90 78 64
-0.51496146 -0.04475608 0.85351124 90 78 64
-0.44484402 -0.03473570 0.75038066 146 130 114
-0.12701683 -0.03869115 0.78471723 153 141 125
-0.50568257 -0.04912839 0.91353368 91 81 69
-0.14489532 -0.03649920 0.78460602 157 145 129
-0.50534768 -0.05026551 0.94176199 95 82 73
-0.50586434 -0.04953862 0.93411754 96 86 77
-0.50613642 -0.04862968 0.92456887 90 80 70
-0.14097740 -0.03428601 0.78404492 108 96 80
-0.13441180 -0.03429989 0.78437116 118 106 90
-0.50516506 -0.04983342 0.95420193 95 81 73
-0.51461177 -0.04479011 0.89988863 95 85 73
-0.51556513 -0.04449610 0.89670153 111 99 87
-0.49114196 -0.03497560 0.79635385 103 89 76
-0.50638161 -0.04856199 0.95786380 90 80 70
-0.51253083 -0.04492085 0.91787082 86 76 66
-0.51371344 -0.04439522 0.91207489 106 96 86
-0.51533185 -0.04383498 0.90586989 92 82 70
-0.50311172 -0.03493107 0.81016095 100 85 72
-0.51323310 -0.04478222 0.93332540 102 92 80
-0.51528874 -0.04334574 0.91725283 113 103 93
-0.51434570 -0.03427010 0.81713454 129 115 102
-0.05392233 -0.02447966 0.75620648 75 61 50
-0.04370832 -0.02342239 0.74557854 80 66 55
-0.51272562 -0.04497178 0.95314140 90 80 68
-0.51376512 -0.04423219 0.94469648 88 78 66
-0.51504383 -0.04369138 0.93845424 101 91 79
-0.51575702 -0.04320942 0.93294631 98 88 76
-0.51331084 -0.04397690 0.95998262 99 88 77
-0.51576963 -0.04353415 0.95453216 108 98 86
-0.52501561 -0.03872289 0.89804662 94 81 72
-0.45494482 -0.02454894 0.74691680 130 117 100
-0.51583545 -0.04237092 0.95957352 100 87 78
-0.52527893 -0.03797966 0.90667067 110 100 90
-0.52554539 -0.03741216 0.91769433 105 95 83
-0.53324814 -0.03481187 0.88518119 104 92 80
-0.53381368 -0.03459439 0.88247886 107 95 83
-0.50004437 -0.02493451 0.77514664 105 89 76
-0.49459397 -0.02432482 0.76908796 95 83 69
-0.52528137 -0.03822968 0.94600638 91 79 67
-0.52549435 -0.03762587 0.93865368 98 86 74
-0.52606112 -0.03719488 0.93330308 104 92 80
-0.53072318 -0.03497568 0.90532240 113 99 88
-0.53141968 -0.03474415 0.90235129 103 89 78
-0.52979007 -0.03483664 0.92221391 106 94 82
-0.53546285 -0.03282487 0.89583773 97 83 72
-0.52600917 -0.03623818 0.96008548 110 98 86
-0.53093593 -0.03491232 0.94188284 106 93 84
-0.53177397 -0.03429245 0.93383027 107 95 83
-0.53512852 -0.03226266 0.90727152 118 105 94
-0.53225980 -0.02499971 0.81688490 108 94 81
-0.03308033 -0.00488335 0.71997918 78 66 54
-0.02974407 -0.00433835 0.71417150 81 69 57
-0.52834265 -0.03469389 0.95981561 106 94 83
-0.53065063 -0.03414874 0.95202434 38 26 14
-0.53506504 -0.03184308 0.92092863 114 102 90
-0.04350690 -0.00334091 0.72616313 86 73 62
-0.04156078 -0.00315619 0.72447035 23 11 6
-0.53540339 -0.03192141 0.94152201 101 87 76
-0.53698453 -0.03128212 0.93254991 117 103 92
-0.53526145 -0.03148632 0.95631300 107 93 82
-0.53632978 -0.03123581 0.95251557 113 99 88
-0.54556366 -0.02632961 0.90249950 107 93 82
-0.03874691 0.00505010 0.70782539 78 69 54
-0.54505621 -0.02602358 0.91877750 110 96 85
-0.54594248 -0.02565815 0.91323496 82 68 57
-0.54780417 -0.02493669 0.90223650 103 89 78
-0.04429269 0.00659577 0.71527281 76 64 50
-0.54516442 -0.02600131 0.93954016 94 80 71
-0.54595633 -0.02563373 0.93386555 94 80 71
-0.54701459 -0.02493797 0.92336521 113 99 89
-0.54826627 -0.02424918 0.91285860 97 83 72
-0.54568174 -0.02562280 0.95582151 85 71 62
-0.54671805 -0.02540494 0.95203079 101 87 78
-0.54646152 -0.02492587 0.94519236 79 65 56
-0.54699642 -0.02473772 0.94213110 99 86 76
-0.54805820 -0.02420635 0.93375101 104 90 81
-0.54775730 -0.02416539 0.95573870 108 94 85
-0.55512253 -0.02050239 0.89633493 106 92 81
-0.45493253 -0.00410885 0.71540515 129 113 98
-0.55525247 -0.01993611 0.90939720 118 104 93
-0.05417996 0.01570670 0.70867965 105 93 79
-0.04482059 0.01695965 0.69594913 103 89 78
-0.55514488 -0.01979815 0.92999626 104 90 81
-0.55549405 -0.01949428 0.92497504 103 89 80
-0.49463346 -0.00464433 0.73722208 92 78 62
-0.55569206 -0.01978069 0.95307596 115 100 90
-0.55654405 -0.01915743 0.94238196 103 91 79
-0.51258422 -0.00493952 0.74878375 90 78 64
-0.42480400 0.00578934 0.64606822 140 127 111
-0.55646708 -0.01869773 0.95956366 119 105 94
-0.56502166 -0.01426613 0.90254835 99 86 77
-0.56586220 -0.01374474 0.89295260 106 94 82
-0.56566951 -0.01325269 0.88479655 103 89 78
-0.56520193 -0.01374457 0.91794951 93 82 70
-0.56578175 -0.01347842 0.91275237 92 80 68
-0.56528250 -0.01399607 0.94815532 100 86 73
-0.56625884 -0.01371257 0.94206304 107 93 80
-0.56704369 -0.01330669 0.93398119 114 101 88
-0.55335331 -0.00492935 0.79839355 105 92 79
-0.56655655 -0.01329015 0.96116557 111 94 81
-0.03433302 0.03583192 0.65077096 103 91 77
-0.56486627 -0.00495004 0.83359662 108 94 83
-0.56369777 -0.00436289 0.82385336 114 100 87
-0.57518289 -0.00812306 0.90813327 96 81 69
-0.57540244 -0.00790008 0.90349335 112 98 85
-0.57548460 -0.00746132 0.89480862 95 85 73
-0.56971123 -0.00495166 0.85308304 92 77 67
-0.56837340 -0.00445108 0.84499755 105 91 80
-0.57502868 -0.00795605 0.93334554 133 118 105
-0.57620800 -0.00761447 0.92484903 118 103 90
-0.57447438 -0.00495140 0.87346221 49 39 27
-0.57324949 -0.00444431 0.86489359 107 94 83
-0.57399984 -0.00801675 0.96626936 117 101 86
-0.57520232 -0.00731345 0.94986144 137 121 106
-0.57575831 -0.00708524 0.94429683 136 120 105
-0.03341484 0.04530113 0.63914952 117 105 92
-0.57573719 -0.00664829 0.96645852 136 120 105
-0.57625911 -0.00653497 0.96320641 136 120 105
-0.58051006 -0.00491703 0.92173453 111 95 82
-0.58114731 -0.00461133 0.91415570 100 84 71
-0.58142930 -0.00420675 0.90499524 118 102 89
-0.57754734 -0.00495447 0.95911655 124 108 93
-0.57837208 -0.00474350 0.95304173 109 93 78
-0.57907380 -0.00432182 0.94246632 114 98 83
-0.58037609 -0.00402130 0.93360222 124 108 93
-0.55348885 0.00502568 0.77609859 108 95 79
-0.57699132 -0.00412184 0.97517710 119 107 91
-0.57768437 -0.00402033 0.97160260 119 107 91
-0.48459342 0.01500256 0.69579566 110 94 78
-0.58513736 -0.00116821 0.92513187 112 96 81
-0.58557287 -0.00108280 0.92225665 112 96 81
-0.58635615 -0.00081963 0.91445294 123 107 92
-0.57518503 0.00501749 0.82601620 117 103 92
-0.57490820 0.00517222 0.82270957 89 77 64
-0.57459007 0.00553942 0.81417725 104 95 80
-0.58503683 0.00092934 0.94438062 111 95 80
-0.58039544 0.00500744 0.84830471 95 84 72
-0.57963375 0.00525594 0.84348588 89 78 65
-0.58504933 0.00118659 0.97662609 123 107 92
-0.58523888 0.00127488 0.97379029 122 106 91
-0.58505912 0.00183133 0.95910252 139 123 108
-0.58523852 0.00200575 0.95395219 129 113 98
-0.58481759 0.00533092 0.86466908 96 86 74
-0.59218019 0.00503099 0.93240647 101 86 70
-0.59384324 0.00519360 0.92313439 121 105 90
-0.59451206 0.00546721 0.91321874 129 113 98
-0.59379646 0.00586698 0.90325138 111 95 79
-0.46439590 0.02575161 0.65796270 118 105 88
-0.59069858 0.00501039 0.98137397 145 129 116
-0.59033487 0.00527151 0.97427485 142 126 111
-0.58993619 0.00561069 0.96484177 146 130 115
-0.59013246 0.00599570 0.95226972 130 114 99
-0.59150848 0.00616540 0.94302324 122 106 91
-0.59522777 0.00629708 0.92822973 120 104 89
-0.56458918 0.01551938 0.76640667 122 109 93
-0.59518881 0.00874914 0.94043110 119 103 88
-0.57419763 0.01549249 0.77714444 102 86 71
-0.50289205 0.02501676 0.68594962 176 161 141
-0.59549336 0.00892833 0.98484133 119 103 88
-0.59527158 0.00922138 0.97490261 121 105 92
-0.59519605 0.00990192 0.95022849 135 119 104
-0.58419835 0.01502427 0.80232242 102 88 75
-0.58330871 0.01531716 0.79481090 99 84 72
-0.59711833 0.01024967 0.98506915 119 103 88
-0.59588178 0.01091219 0.96414285 132 116 101
-0.58859136 0.01506319 0.83123141 92 78 67
-0.59469173 0.01504532 0.85819732 115 99 86
-0.59415708 0.01517834 0.85497042 84 68 55
-0.59244348 0.01562761 0.84367555 89 75 64
-0.60075447 0.01505151 0.88689821 124 108 92
-0.54213615 0.02500016 0.71998647 105 89 72
-0.46451232 0.03510412 0.63548685 127 114 98
-0.60492218 0.01532217 0.91583564 131 115 100
-0.60478554 0.01537934 0.91380510 126 110 95
-0.60413022 0.01566002 0.90375525 126 110 95
-0.47391209 0.03507769 0.64713655 123 107 94
-0.60467397 0.01529429 0.98932517 115 101 88
-0.60538626 0.01528982 0.98548748 122 108 95
-0.60530074 0.01534679 0.98302336 122 108 95
-0.60478460 0.01543701 0.98129531 122 106 93
-0.60288797 0.01578364 0.97416268 123 107 93
-0.60251920 0.01600744 0.96466818 127 111 98
-0.60336545 0.01613052 0.95345344 129 113 98
-0.60454129 0.01617599 0.94437865 124 108 93
-0.60507608 0.01736480 0.95345699 126 110 95
-0.60679557 0.01827040 0.97338074 122 106 93
-0.60610091 0.01849418 0.96442742 121 105 92
-0.50354663 0.03507382 0.66538100 90 74 59
-0.61524571 0.02001219 0.98541663 130 114 99
-0.59402120 0.02503447 0.79217938 128 112 97
-0.59274266 0.02529645 0.78368531 102 89 73
-0.61796705 0.02115589 0.98355602 140 124 111
-0.60041712 0.02501821 0.83035369 104 89 77
-0.59923072 0.02522843 0.82450486 97 83 70
-0.53128665 0.03505891 0.68523026 138 122 106
-0.61724481 0.02277559 0.97474533 126 110 95
-0.60482655 0.02550824 0.85133741 134 118 103
-0.60396692 0.02567792 0.84480695 142 127 111
-0.61656257 0.02438536 0.96352366 141 125 110
-0.61629632 0.02449540 0.95406038 130 114 99
-0.61492957 0.02500835 0.91190389 118 101 86
-0.61401161 0.02518421 0.90446492 129 113 98
-0.61266717 0.02544233 0.89349898 133 117 102
-0.61156556 0.02565356 0.88454729 107 91 76
-0.54465539 0.03561267 0.69613353 156 140 124
-0.62822007 0.02418787 0.98180125 105 89 74
-0.62179358 0.02505603 0.97512397 137 121 108
-0.62129323 0.02513122 0.97343131 141 125 112
-0.61888623 0.02549549 0.96489067 125 109 94
-0.61821346 0.02565487 0.95361484 125 109 94
-0.61883065 0.02564488 0.94292196 126 112 99
-0.61925836 0.02565562 0.93278536 125 109 94
-0.55484070 0.03537623 0.70859048 149 133 112
-0.63126332 0.02521114 0.98177500 139 123 108
-0.56478740 0.03516480 0.72111692 148 135 116
-0.62828394 0.02704526 0.97449441 97 81 68
-0.57408114 0.03503427 0.73406436 144 129 108
-0.63534561 0.02748268 0.98534453 175 159 146
-0.63612542 0.02738408 0.98123518 175 159 146
-0.62525037 0.02888137 0.96486172 135 119 106
-0.63568378 0.02884877 0.97453703 164 151 135
-0.62626072 0.03014515 0.95345028 126 109 93
-0.59073086 0.03503975 0.74535872 122 109 93
-0.59924864 0.03500323 0.76165440 114 101 85
-0.52414319 0.04533511 0.65682245 114 98 83
-0.60829032 0.03500437 0.80889777 127 111 96
-0.60490227 0.03541285 0.78593785 97 85 69
-0.60470090 0.03543700 0.78453524 109 97 81
-0.60317729 0.03562309 0.77496558 118 102 87
-0.61798688 0.03505674 0.86334583 124 108 93
-0.61483941 0.03542021 0.84435065 127 111 96
-0.61342406 0.03557968 0.83497555 131 115 99
-0.61152719 0.03580381 0.82459236 149 136 120
-0.64620157 0.03295344 0.98467472 170 154 141
-0.63649910 0.03424365 0.96401020 175 161 148
-0.62953814 0.03500207 0.92299186 128 114 101
-0.62770289 0.03521744 0.91459215 113 100 84
-0.62491479 0.03548613 0.89266771 133 117 102
-0.62392757 0.03557303 0.88361411 131 115 100
-0.62278723 0.03568501 0.87497347 128 112 97
-0.64835591 0.03403336 0.98609508 149 133 120
-0.64764108 0.03404522 0.97426994 162 148 135
-0.64031813 0.03506062 0.96493112 155 141 128
-0.63676103 0.03550135 0.95382866 167 153 140
-0.63539887 0.03562559 0.94400729 140 127 110
-0.63482256 0.03568091 0.94019598 158 145 128
-0.63386560 0.03577941 0.93469886 170 156 143
-0.65064188 0.03506020 0.98454562 185 159 149
-0.64943053 0.03513929 0.97372015 167 153 140
-0.64472010 0.03578889 0.96723215 164 149 137
-0.65250772 0.03617591 0.98649402 194 162 121
-0.64512837 0.03705812 0.96421494 169 155 142
-0.57435337 0.04503546 0.70740624 124 109 88
-0.65567421 0.03701876 0.98308872 199 162 109
-0.58269168 0.04501120 0.72034815 147 132 111
-0.65646766 0.03812752 0.97385724 170 134 88
-0.64563001 0.03955035 0.95382216 145 131 120
-0.66508978 0.04090019 0.98102539 61 52 44
-0.65621947 0.04205160 0.96490941 91 70 70
-0.61498536 0.04516648 0.77399571 121 104 88
-0.61295008 0.04530489 0.76377724 121 104 88
-0.61138927 0.04538976 0.75483786 124 107 91
-0.61003270 0.04541366 0.74448330 115 98 82
-0.66618074 0.04191042 0.97373649 60 56 57
-0.63447345 0.04500674 0.86834710 124 108 93
-0.63307430 0.04515766 0.86437988 142 126 111
-0.62890379 0.04564916 0.85454759 127 111 96
-0.62482401 0.04589392 0.83363755 127 111 95
-0.62364773 0.04589507 0.82428844 123 107 91
-0.62219914 0.04591686 0.81374924 132 116 100
-0.65558839 0.04459332 0.95406702 93 85 78
-0.64974558 0.04500779 0.92851595 180 168 154
-0.64818918 0.04517566 0.92426116 168 156 142
-0.64485328 0.04550914 0.91397289 150 138 122
-0.64261426 0.04567106 0.90431854 153 140 123
-0.64072634 0.04576583 0.89432437 170 158 142
-0.55466658 0.05503923 0.65866315 120 104 88
-0.66201356 0.04500714 0.96205720 47 43 44
-0.65734325 0.04560252 0.95349859 90 83 77
-0.65543671 0.04571883 0.94475458 148 138 128
-0.65469272 0.04576255 0.94127323 144 132 120
-0.67017451 0.04508863 0.96898848 49 44 43
-0.66724705 0.04548612 0.96464340 50 46 47
-0.67620335 0.04550544 0.97496369 89 81 79
-0.65655760 0.04783642 0.93359148 136 129 122
-0.57473100 0.05529125 0.67894378 96 80 65
-0.67521477 0.04799076 0.96453835 57 48 49
-0.66655881 0.04923983 0.95419324 72 72 78
-0.52211221 0.06502645 0.61638558 99 86 69
-0.66559854 0.05038732 0.94393882 91 89 97
-0.39499097 0.08552905 0.49631562 97 75 77
-0.66550923 0.05137874 0.93468155 95 86 79
-0.60563599 0.05508971 0.71629562 110 94 79
-0.60496268 0.05518786 0.71550593 122 104 90
-0.68724527 0.04985276 0.97080149 54 43 39
-0.68556834 0.04992446 0.96394748 5 4 2
-0.67690917 0.05249582 0.95449852 24 12 12
-0.64433208 0.05504140 0.85622003 178 165 148
-0.64384488 0.05508824 0.85498651 165 152 135
-0.64181448 0.05508547 0.84451095 181 165 149
-0.63489809 0.05507486 0.80879501 126 113 96
-0.63395638 0.05510759 0.80485302 129 116 99
-0.63173416 0.05513428 0.79418868 135 119 103
-0.63026859 0.05505537 0.78455475 131 115 99
-0.66643580 0.05462174 0.92428684 16 11 7
-0.66280223 0.05504206 0.91709048 18 14 11
-0.66170161 0.05515381 0.91450897 109 100 91
-0.65837130 0.05541315 0.90466249 80 63 47
-0.65572118 0.05550551 0.89388346 77 72 68
-0.65470859 0.05551683 0.88914603 184 179 175
-0.65377163 0.05551100 0.88434148 170 158 144
-0.65185541 0.05551671 0.87497059 170 157 141
-0.64920294 0.05563853 0.86494048 163 150 133
-0.64217180 0.05582917 0.83493755 142 129 112
-0.62482918 0.05574516 0.74662421 139 124 103
-0.62442742 0.05572715 0.74416353 135 120 99
-0.62307667 0.05560309 0.73425111 118 103 84
-0.69579990 0.05193137 0.96813883 81 61 54
-0.69527812 0.05186621 0.96400702 53 33 26
-0.67622588 0.05476630 0.94395790 62 53 56
-0.67319866 0.05500809 0.93534541 103 112 119
-0.67276902 0.05502849 0.93377819 68 75 85
-0.66885132 0.05542479 0.92469845 122 114 102
-0.68570853 0.05460913 0.95453637 13 9 6
-0.68310112 0.05503726 0.95249974 14 10 9
-0.67859207 0.05558399 0.94436538 40 30 30
-0.66565685 0.05688722 0.91471290 30 28 27
-0.68941357 0.05512858 0.95442678 17 13 10
-0.67666021 0.05677404 0.93387612 69 67 70
-0.69616148 0.05505162 0.95506644 37 26 20
-0.69512042 0.05525166 0.95484912 59 48 42
-0.66661431 0.05872031 0.90448857 184 161 130
-0.68622784 0.05780862 0.94420594 8 4 3
-0.67691395 0.05877916 0.92439131 38 34 35
-0.70518443 0.05608142 0.96349867 70 42 20
-0.68639158 0.05978447 0.93456821 37 26 20
-0.67660962 0.06078810 0.91389689 22 13 14
-0.53183360 0.07504770 0.59609432 59 56 55
-0.70829236 0.05740067 0.95393239 105 79 56
-0.69569551 0.05957206 0.94457431 11 7 6
-0.67580768 0.06168307 0.90434620 37 26 24
-0.60460328 0.06536578 0.68543011 118 105 89
-0.68665854 0.06167704 0.92494728 49 38 34
-0.61309169 0.06509897 0.69531939 131 119 99
-0.67651230 0.06341653 0.89472699 29 14 2
-0.69734632 0.06231397 0.93433308 33 25 23
-0.68537275 0.06377100 0.91402653 3 6 0
-0.71629724 0.06081065 0.95937606 30 17 9
-0.71590526 0.06064107 0.95498585 33 20 12
-0.70727195 0.06194139 0.94469769 76 59 49
-0.68131232 0.06502162 0.89952366 42 31 27
-0.67955784 0.06508604 0.89400370 32 27 21
-0.67651564 0.06519971 0.88446590 98 81 55
-0.67471913 0.06528895 0.87921306 86 73 64
-0.67302376 0.06534948 0.87384972 80 73 65
-0.66935849 0.06556888 0.86377338 30 20 18
-0.66483817 0.06561842 0.84755342 82 67 48
-0.66427093 0.06557281 0.84462865 152 137 118
-0.65496420 0.06527356 0.80434839 124 111 92
-0.64486498 0.06507183 0.76274893 131 115 99
-0.63481038 0.06524473 0.72774659 133 118 97
-0.63389277 0.06526260 0.72458815 147 131 115
-0.69634468 0.06438903 0.92492575 36 30 30
-0.69066119 0.06508972 0.91552500 5 3 6
-0.69000108 0.06517772 0.91454362 31 29 32
-0.69921205 0.06502202 0.92625110 20 12 10
-0.69797420 0.06516866 0.92411454 30 24 24
-0.68624509 0.06656591 0.90399558 110 106 131
-0.67629048 0.06701067 0.87487821 18 4 4
-0.71515706 0.06375915 0.94469109 192 173 148
-0.70739845 0.06508047 0.93772778 67 54 46
-0.70556297 0.06529014 0.93445153 82 69 61
-0.57970237 0.07500447 0.63597692 127 115 97
-0.69615649 0.06733451 0.91433652 43 42 38
-0.68554290 0.06849933 0.89475545 25 43 81
-0.67574007 0.06875898 0.86407679 32 27 23
-0.52031473 0.08511212 0.56646125 57 54 50
-0.71974364 0.06504366 0.94432140 28 11 1
-0.52607746 0.08502495 0.56990834 125 129 132
-0.72577561 0.06576713 0.95841259 61 43 33
-0.72594091 0.06532634 0.95250644 63 45 35
-0.72494520 0.06519034 0.94708745 49 37 25
-0.70587525 0.06813501 0.92480878 33 28 25
-0.67591942 0.07034562 0.85434192 79 70 63
-0.68600132 0.07115027 0.88383988 16 10 3
-0.67515056 0.07095533 0.84427286 149 129 108
-0.60450011 0.07526299 0.66663603 95 81 68
-0.53653387 0.08506239 0.57686210 119 121 126
-0.72623611 0.06702727 0.94439531 28 8 6
-0.69603012 0.07136523 0.90419087 182 183 205
-0.71680366 0.06976994 0.93492089 107 86 65
-0.70539646 0.07104737 0.91477357 16 12 9
-0.68568673 0.07284775 0.87438975 26 7 2
-0.67599199 0.07223743 0.83403417 66 52 41
-0.67503760 0.07287971 0.82481691 42 33 26
-0.71531971 0.07282876 0.92443789 68 47 30
-0.69823493 0.07504465 0.89852489 180 138 110
-0.69592554 0.07528538 0.89426756 190 152 125
-0.69490259 0.07535350 0.89188757 189 152 125
-0.69232540 0.07536798 0.88387466 178 162 117
-0.68959055 0.07529393 0.87422413 185 161 137
-0.68628816 0.07530023 0.86379924 91 74 56
-0.68492309 0.07520167 0.85819178 103 101 104
-0.68402552 0.07508404 0.85382672 7 5 7
-0.73534511 0.07153652 0.95663637 15 6 0
-0.73571256 0.07114034 0.95281241 28 18 9
-0.72564111 0.07221089 0.93459485 94 74 67
-0.70492942 0.07506002 0.90527033 191 168 134
-0.68536902 0.07585212 0.85371196 10 8 11
-0.68381028 0.07552989 0.84475995 19 11 9
-0.68189695 0.07521245 0.83475299 44 37 31
-0.67907497 0.07511336 0.82463282 49 36 30
-0.67620727 0.07505187 0.81484157 67 59 56
-0.67498558 0.07508726 0.81144442 31 26 22
-0.64498862 0.07520798 0.71862640 126 109 93
-0.64359792 0.07524800 0.71475596 111 94 78
-0.73591078 0.07156524 0.94442302 122 95 65
-0.71218080 0.07500359 0.91296784 195 174 157
-0.70557043 0.07595931 0.90417986 204 182 144
-0.68513710 0.07628712 0.84467177 11 7 8
-0.66475238 0.07552814 0.77193150 222 209 165
-0.65487962 0.07540504 0.73971271 97 83 70
-0.71906431 0.07509184 0.92137601 154 133 116
-0.69606938 0.07784406 0.88385756 135 139 153
-0.51466203 0.09521903 0.53552087 1 3 20
-0.72617260 0.07506262 0.92912427 75 41 27
-0.72488972 0.07523879 0.92730430 205 178 121
-0.71684189 0.07625173 0.91479549 33 16 3
-0.68592299 0.07741262 0.83441899 6 7 2
-0.72503630 0.07612172 0.92475010 105 72 37
-0.69593428 0.07930436 0.87401761 14 5 0
-0.47077427 0.10510100 0.49512104 111 129 186
-0.74116178 0.07600452 0.95856473 146 119 89
-0.74202385 0.07530680 0.95318792 149 120 90
-0.73884306 0.07501387 0.94036283 179 154 130
-0.73487055 0.07561715 0.93538549 23 17 12
-0.68575715 0.07871527 0.82417540 114 97 78
-0.59478260 0.08529857 0.62779801 211 215 225
-0.53042753 0.09505906 0.54701958 108 167 225
-0.73614625 0.07636817 0.93489353 17 21 23
-0.70531943 0.08092337 0.89476448 22 14 5
-0.69571141 0.08076495 0.86460970 149 127 104
-0.60467390 0.08503996 0.64347790 107 89 75
-0.61485045 0.08510868 0.66352153 155 142 125
-0.54104229 0.09502513 0.55641816 76 187 255
-0.74552911 0.07772292 0.95235807 151 132 100
-0.71585577 0.08124983 0.90435819 9 1 0
-0.69515968 0.08215089 0.85406805 52 48 25
-0.68588731 0.08092635 0.81397663 128 119 102
-0.74531256 0.07822386 0.94499995 112 95 85
-0.72672366 0.08040938 0.91474237 104 85 70
-0.55148163 0.09507041 0.56652759 73 182 249
-0.69560305 0.08324961 0.84401989 76 71 58
-0.68543502 0.08226144 0.80476453 86 73 56
-0.49685739 0.10512293 0.50568461 13 18 40
-0.71020138 0.08503613 0.89253031 15 11 8
-0.70590504 0.08537533 0.88386881 171 149 104
-0.70469063 0.08531829 0.87985498 87 67 39
-0.70316455 0.08520519 0.87438677 118 100 78
-0.69505752 0.08348459 0.83387329 143 141 148
-0.63329435 0.08511385 0.67611395 145 132 113
-0.73677182 0.08198033 0.92488943 47 40 32
-0.71618263 0.08502271 0.89785224 26 18 15
-0.71487988 0.08521928 0.89618250 37 28 23
-0.70243464 0.08544571 0.86360381 54 45 46
-0.69975956 0.08528972 0.85454045 151 159 164
-0.74653942 0.08134458 0.93470034 152 142 130
-0.70529546 0.08687624 0.87489663 46 33 25
-0.69892110 0.08560310 0.84457771 82 79 74
-0.69729591 0.08501019 0.83419042 129 151 175
-0.69541268 0.08456538 0.82455295 138 122 106
-0.68527455 0.08431710 0.79392732 200 184 177
-0.57193896 0.09505251 0.58536816 115 186 241
-0.72746813 0.08502750 0.90722787 100 83 73
-0.71671871 0.08680784 0.89494677 31 23 20
-0.69650620 0.08532104 0.82474554 147 131 115
-0.69466390 0.08523592 0.81883808 56 47 40
-0.69299654 0.08526092 0.81448573 157 149 138
-0.68969642 0.08513550 0.80416730 159 141 117
-0.68641740 0.08502866 0.79408800 207 205 193
-0.68475663 0.08507673 0.78997864 142 137 130
-0.68273725 0.08511806 0.78481517 208 199 190
-0.65494751 0.08528097 0.70980369 108 92 77
-0.65290238 0.08528880 0.70424290 109 93 77
-0.72656768 0.08615398 0.90494906 70 53 43
-0.70550297 0.08795088 0.86456639 124 114 105
-0.68043138 0.08566595 0.77407989 151 121 91
-0.67494618 0.08547004 0.75719835 232 224 211
-0.67378385 0.08549627 0.75427081 118 103 84
-0.66474355 0.08553168 0.72988388 107 77 58
-0.74035206 0.08507099 0.92170177 41 27 15
-0.73554867 0.08567128 0.91432964 62 42 8
-0.69523442 0.08672001 0.81479483 103 93 86
-0.58495172 0.09523852 0.59584401 159 193 234
-0.52147693 0.10504948 0.51615646 99 159 239
-0.74609192 0.08505690 0.92679389 87 69 55
-0.74467202 0.08533833 0.92558379 112 94 80
-0.70504585 0.08910355 0.85380573 133 109 75
-0.68571773 0.08723454 0.78435188 244 228 215
-0.75350893 0.08516058 0.93753856 209 195 188
-0.74513737 0.08619611 0.92462228 139 121 107
-0.71583631 0.09151303 0.88484345 31 20 18
-0.70513267 0.09017185 0.84431582 162 174 198
-0.53447503 0.10506695 0.52529524 48 171 251
-0.75506035 0.08644598 0.93353004 136 124 120
-0.69591191 0.08944970 0.80417416 228 224 215
-0.68555091 0.08915077 0.77418396 110 82 44
-0.73525668 0.09014238 0.90446574 88 62 45
-0.72664504 0.09162295 0.89486328 28 17 11
-0.70545910 0.09108783 0.83466124 86 87 90
-0.54497530 0.10501125 0.53603624 51 170 250
-0.71578046 0.09367890 0.87489898 6 2 0
-0.61458664 0.09528197 0.62530552 165 200 242
-0.75651404 0.08824419 0.92477875 197 198 203
-0.70511922 0.09209646 0.82462676 165 174 179
-0.69586046 0.09140690 0.79481193 153 137 114
-0.68529573 0.09105033 0.76445263 186 165 134
-0.62350336 0.09502997 0.63849148 115 147 176
-0.55458640 0.10500570 0.54512327 60 170 249
-0.74599894 0.09125426 0.91400987 109 102 99
-0.72056417 0.09502937 0.88031317 19 15 14
-0.71815117 0.09509833 0.87468994 9 5 2
-0.63342834 0.09502634 0.65633384 118 102 86
-0.63254861 0.09511136 0.65478621 120 104 88
-0.72661108 0.09505261 0.88698323 20 12 9
-0.71600186 0.09563051 0.86466612 101 94 84
-0.71490639 0.09549033 0.86070792 103 101 104
-0.71317239 0.09521872 0.85403114 128 133 152
-0.72597990 0.09599265 0.88422960 6 5 3
-0.71197025 0.09551341 0.84474856 69 64 65
-0.64336944 0.09506409 0.66691089 140 127 110
-0.73823434 0.09503791 0.89878332 39 15 0
-0.73511081 0.09552444 0.89481843 95 79 64
-0.71530951 0.09669872 0.85429996 132 131 136
-0.71066986 0.09563573 0.83402899 156 178 192
-0.70863478 0.09512208 0.82475579 78 70 37
-0.70528596 0.09489174 0.81444878 193 183 175
-0.69551806 0.09426270 0.78472965 198 167 123
-0.64781326 0.09500625 0.67031752 146 133 116
-0.57483629 0.10501457 0.56673848 69 169 243
-0.51177414 0.11506145 0.48849375 113 139 196
-0.74530698 0.09463127 0.90476095 231 225 235
-0.70625544 0.09563744 0.81476783 212 203 198
-0.70473601 0.09555917 0.81033326 209 199 190
-0.70296594 0.09540336 0.80465341 210 201 200
-0.69990902 0.09508471 0.79445037 60 44 29
-0.68569940 0.09454241 0.75448525 147 115 91
-0.74771959 0.09508065 0.90592785 244 243 246
-0.74650315 0.09526131 0.90430996 204 189 185
-0.69713837 0.09566120 0.78428255 178 145 110
-0.69472035 0.09547858 0.77681715 188 154 118
-0.69409277 0.09539841 0.77462257 177 159 111
-0.69056393 0.09521391 0.76437095 60 52 41
-0.68668203 0.09523201 0.75482766 131 112 95
-0.68493804 0.09515703 0.74988830 161 137 129
-0.68283339 0.09508271 0.74405435 170 146 110
-0.66485310 0.09532755 0.70111436 117 101 86
-0.66204012 0.09533373 0.69414451 134 118 103
-0.75540475 0.09483024 0.91481250 100 90 86
-0.72589104 0.09908561 0.87453471 21 15 15
-0.71567665 0.09846553 0.84439090 31 80 162
-0.69507638 0.09609646 0.77493675 189 164 129
-0.75746679 0.09515106 0.91423574 115 110 105
-0.70539148 0.09762929 0.80468226 212 208 208
-0.68588659 0.09705554 0.74495543 179 163 137
-0.73535918 0.10051307 0.88447707 48 34 25
-0.72507309 0.10117843 0.86432419 17 9 7
-0.71553042 0.10021560 0.83384909 18 25 42
-0.69509326 0.09862614 0.76497880 60 53 34
-0.75586440 0.09863933 0.90497619 145 122 108
-0.74627682 0.10041494 0.89472231 191 189 202
-0.70526046 0.10018564 0.79393556 186 173 157
-0.71574002 0.10195819 0.82482248 16 16 16
-0.68509416 0.09959962 0.73418238 200 160 91
-0.76507094 0.09817129 0.90881284 237 235 233
-0.72549866 0.10380168 0.85410475 8 4 3
-0.73546400 0.10435866 0.87448494 139 130 120
-0.73557130 0.10505516 0.87231865 95 85 76
-0.73498242 0.10514011 0.87151214 23 13 4
-0.73144602 0.10534444 0.86454749 22 17 14
-0.72758579 0.10518060 0.85426126 20 16 13
-0.70546342 0.10270143 0.78462845 180 159 130
-0.62401652 0.10504937 0.60786698 137 183 233
-0.76593754 0.10035602 0.90459293 190 196 223
-0.74045311 0.10501189 0.87639411 42 29 19
-0.72581507 0.10534862 0.84416751 33 24 15
-0.72465086 0.10523768 0.84065997 42 29 21
-0.72277974 0.10502048 0.83475608 65 51 38
-0.71512145 0.10465449 0.81417806 88 72 49
-0.69576993 0.10264870 0.75476758 149 155 189
-0.74805731 0.10500378 0.88716287 164 177 211
-0.74636864 0.10520719 0.88457588 11 0 0
-0.72040013 0.10535387 0.82458018 38 31 23
-0.71608336 0.10535405 0.81444296 86 72 52
-0.71497218 0.10524960 0.81112509 92 76 53
-0.68563984 0.10270731 0.72499891 119 108 77
-0.63315046 0.10500343 0.61728807 154 192 239
-0.56928739 0.11503910 0.53533584 115 138 188
-0.75593325 0.10442208 0.89471890 124 143 194
-0.73640522 0.10675765 0.86471583 35 31 28
-0.72520585 0.10611646 0.83423153 41 38 26
-0.71390692 0.10562432 0.80451366 55 43 29
-0.71103724 0.10508394 0.79418140 112 97 88
-0.70519434 0.10419887 0.77458664 82 80 69
-0.69526619 0.10316407 0.74443610 66 39 28
-0.75645104 0.10510167 0.89358373 118 144 201
-0.74525691 0.10612878 0.87433344 91 74 58
-0.70895040 0.10535921 0.78471244 100 87 78
-0.65191767 0.10504289 0.64984676 108 116 137
-0.64923226 0.10519224 0.64458537 143 183 232
-0.64487883 0.10506112 0.63358160 100 168 239
-0.76070520 0.10506205 0.89643179 114 138 198
-0.73580056 0.10739761 0.85401753 9 5 4
-0.72636814 0.10628738 0.82487466 40 31 26
-0.71546383 0.10695019 0.80394483 58 45 28
-0.70681432 0.10544847 0.77404986 34 33 30
-0.70473733 0.10525643 0.76797649 230 231 239
-0.70324450 0.10519845 0.76413604 92 86 86
-0.72508269 0.10618056 0.81481574 132 118 107
-0.70079909 0.10552935 0.75454250 1 2 6
-0.69248019 0.10501741 0.73202128 175 140 117
-0.67984546 0.10503018 0.70294135 112 94 72
-0.65938618 0.10508054 0.65604506 88 77 81
-0.76644645 0.10521644 0.89746249 118 138 196
-0.75585120 0.10694885 0.88422311 129 153 208
-0.74705150 0.10696763 0.86411702 44 31 22
-0.73671369 0.10759413 0.84437442 11 7 6
-0.70536926 0.10635816 0.76439811 167 186 209
-0.69991630 0.10522352 0.74458492 110 86 73
-0.69503678 0.10538408 0.73439916 98 67 25
-0.69027280 0.10551196 0.72426932 149 171 204
-0.68693554 0.10511355 0.71404242 160 146 131
-0.68326135 0.10511965 0.70563626 75 60 40
-0.73620929 0.10712301 0.83390929 16 10 10
-0.71552837 0.10834341 0.79431349 57 27 13
-0.59583179 0.11506464 0.56296996 152 172 207
-0.57623419 0.11763652 0.53443228 153 169 202
-0.76753242 0.10643096 0.89482502 120 141 194
-0.75643188 0.10713860 0.87396049 148 171 213
-0.74669578 0.10762865 0.85484016 41 31 22
-0.73635976 0.10652270 0.82432848 84 91 108
-0.68556122 0.10591879 0.70471646 135 120 98
-0.73512422 0.10630993 0.81421020 186 198 222
-0.73008761 0.10658766 0.80449828 175 172 184
-0.70547532 0.10753528 0.75449409 229 215 202
-0.60211010 0.11500453 0.56617645 161 181 214
-0.58650106 0.11727084 0.54481394 147 169 208
-0.75610936 0.10766364 0.86416345 35 16 3
-0.74617047 0.10807427 0.84420595 21 17 16
-0.71679854 0.10918975 0.78462368 159 124 82
-0.67929113 0.10507158 0.67444652 116 175 235
-0.59513268 0.11653350 0.55456832 154 174 209
-0.76637248 0.10819026 0.88450326 139 154 187
-0.74516185 0.10787586 0.83479119 23 15 13
-0.71523759 0.10908212 0.77470069 224 213 224
-0.70581059 0.10760626 0.74447205 48 34 24
-0.69612925 0.10792064 0.72456912 163 182 215
-0.60745131 0.11501938 0.56795068 169 187 217
-0.76514751 0.10791592 0.87410511 157 172 211
-0.75593128 0.10806569 0.85431705 79 62 46
-0.73670850 0.10698318 0.80463801 212 214 208
-0.60706267 0.11550372 0.56492828 170 187 217
-0.58597407 0.11831366 0.53451755 169 183 212
-0.74647184 0.10760749 0.82464251 22 14 12
-0.72755076 0.10967061 0.79462992 73 56 36
-0.71536683 0.10914050 0.76421546 38 30 27
-0.69595542 0.10815155 0.71489789 153 176 217
-0.69536403 0.10664472 0.70458550 183 197 228
-0.76563522 0.10800722 0.86414384 157 177 214
-0.75585322 0.10837983 0.84454498 47 36 30
-0.74501730 0.10746218 0.81497628 10 6 5
-0.70517946 0.10892673 0.73484588 81 63 51
-0.68265279 0.10553348 0.66460112 160 185 225
-0.61621554 0.11502856 0.57262585 175 192 222
-0.59604265 0.11789596 0.54460607 168 183 216
-0.77529793 0.10852943 0.88301902 154 169 207
-0.73670681 0.10812591 0.79496480 196 194 215
-0.72626412 0.11024128 0.78414797 15 5 8
-0.71627497 0.10894907 0.75440883 85 71 76
-0.60559914 0.11680379 0.55458429 170 186 217
-0.76530149 0.10840463 0.85454299 165 183 221
-0.75599474 0.10851043 0.83456238 36 23 16
-0.69508811 0.10762462 0.69466248 191 202 224
-0.63534004 0.11313154 0.59434973 199 212 231
-0.77669961 0.10843068 0.87438201 159 173 208
-0.75532458 0.10797582 0.82464038 28 24 23
-0.74597913 0.10808203 0.80464252 35 34 44
-0.72649983 0.11033705 0.77462389 135 136 140
-0.71541356 0.10937534 0.74466224 22 18 19
-0.70532326 0.10975420 0.72458577 175 194 227
-0.62377741 0.11504080 0.57509609 184 200 226
-0.61635631 0.11610886 0.56485830 182 198 224
-0.59520211 0.11896644 0.53460242 182 196 223
-0.77534373 0.10819797 0.86465117 173 188 219
-0.76521259 0.10858959 0.84461284 150 131 93
-0.68573256 0.10584834 0.65438410 133 170 222
-0.62657036 0.11503870 0.57658375 191 207 233
-0.62529625 0.11518911 0.57463833 190 206 232
-0.73542112 0.11050506 0.78489293 82 71 68
-0.72645707 0.11034565 0.76436399 190 186 184
-0.60636077 0.11808250 0.54487763 176 191 220
-0.76599171 0.10839395 0.83481493 96 77 58
-0.75615417 0.10851208 0.81399989 10 6 5
-0.74620316 0.10889745 0.79442686 137 139 160
-0.72563480 0.10971435 0.75408343 14 14 14
-0.71530238 0.11022549 0.73437879 201 179 156
-0.70627330 0.11028252 0.71498796 166 188 227
-0.69632978 0.10876428 0.68482051 201 213 237
-0.63541752 0.11465098 0.58467312 210 221 238
-0.61502709 0.11726130 0.55471462 181 197 223
-0.59512546 0.11969487 0.52483788 184 198 225
-0.57684434 0.12140739 0.49447925 168 181 215
-0.77675425 0.10863224 0.85448904 186 200 229
-0.70522103 0.10959976 0.70419918 207 219 241
-0.75566857 0.10879805 0.80461466 11 7 8
-0.73618945 0.11101766 0.77451484 78 60 39
-0.70510053 0.10841237 0.69283984 213 225 244
-0.65655857 0.11334161 0.61453728 157 186 228
-0.63781147 0.11501927 0.58305994 210 221 239
-0.62540744 0.11658522 0.56472722 196 210 236
-0.77586382 0.10898048 0.84443443 177 192 223
-0.76701723 0.10891307 0.82494471 81 64 46
-0.74548269 0.11008844 0.78476365 191 177 174
-0.72666120 0.11016966 0.74451619 5 6 9
-0.71590494 0.11082830 0.72483407 69 41 19
-0.64551260 0.11486192 0.59452829 202 214 236
-0.64203749 0.11501684 0.58785575 212 220 239
-0.60679738 0.11930576 0.53492498 183 199 225
-0.73591607 0.11105449 0.76460110 124 128 131
-0.69581473 0.11043889 0.67487552 200 214 240
-0.64658592 0.11500159 0.59329720 203 216 235
-0.63552746 0.11595291 0.57457645 198 212 236
-0.61634168 0.11802741 0.54437482 184 198 225
-0.78520927 0.10897835 0.85481249 177 188 216
-0.77501035 0.10930916 0.83466263 180 196 222
-0.76525833 0.10943346 0.81437345 47 34 28
-0.75575022 0.10954796 0.79455616 13 11 12
-0.72503000 0.11074684 0.73494021 38 16 4
-0.70561515 0.10916496 0.68480889 199 213 239
-0.67558405 0.11187226 0.63470362 123 176 236
-0.66531574 0.11416157 0.62483079 134 175 227
-0.65551110 0.11438595 0.60496138 168 194 231
-0.58638403 0.12160154 0.49486376 175 189 218
-0.73596592 0.11086524 0.75451833 234 240 251
-0.71615529 0.11138537 0.71483150 152 175 216
-0.65144011 0.11500921 0.59534198 193 209 234
-0.64501619 0.11554804 0.58442593 216 227 245
-0.62555197 0.11777179 0.55446942 197 210 237
-0.60596587 0.12011178 0.52486516 187 201 228
-0.59529123 0.12057876 0.50446571 177 191 220
-0.74605093 0.11147931 0.77479706 101 89 67
-0.69578134 0.11096887 0.66478128 160 187 230
-0.78668871 0.10904838 0.84423500 182 195 222
-0.77599116 0.10965246 0.82459006 214 210 214
-0.76516041 0.11016804 0.80420271 15 10 7
-0.75533558 0.11034968 0.78422613 29 26 21
-0.71519937 0.11138862 0.70415713 168 188 224
-0.66522078 0.11462399 0.61451796 157 184 226
-0.65685528 0.11500301 0.59867158 178 200 231
-0.63574936 0.11714763 0.56485147 203 216 235
-0.61621267 0.11937132 0.53478234 182 198 225
-0.73625407 0.11137898 0.74459271 221 229 248
-0.72632924 0.11157230 0.72451656 111 101 100
-0.71509363 0.11005000 0.69284213 194 213 245
-0.69543386 0.11066935 0.65428873 159 182 223
-0.66410848 0.11500376 0.61006001 166 192 229
-0.65618659 0.11534114 0.59497617 188 205 235
-0.60520177 0.12074720 0.51451883 187 201 227
-0.78582350 0.10923784 0.83434544 192 204 230
-0.77614459 0.10942699 0.81482055 43 25 13
-0.74662137 0.11191384 0.76499374 211 206 203
-0.69535407 0.10963887 0.64488150 161 186 226
-0.69022926 0.10981703 0.63494078 146 184 233
-0.67009706 0.11501145 0.61878580 144 178 224
-0.66806679 0.11506648 0.61476838 157 185 225
-0.64602024 0.11641600 0.57497462 210 221 241
-0.62639486 0.11858551 0.54448314 191 205 232
-0.59544609 0.12165768 0.49462047 184 196 222
-0.76512453 0.11082507 0.79426815 35 27 25
-0.73558980 0.11143318 0.73499698 207 215 236
-0.71541297 0.10995419 0.68493765 202 216 242
-0.70665176 0.11158832 0.67469758 193 207 234
-0.67635674 0.11434908 0.62469371 115 176 245
-0.66508309 0.11509181 0.60464825 169 195 232
-0.75563693 0.11175025 0.77465535 37 25 31
-0.74586118 0.11188980 0.75477699 132 115 123
-0.72580814 0.11223824 0.71431176 205 214 227
-0.69552570 0.10909581 0.63483330 148 180 231
-0.63585107 0.11820527 0.55484007 208 220 244
-0.61643638 0.12037719 0.52484995 186 200 227
-0.78645350 0.10967831 0.82486594 195 207 233
-0.67611545 0.11501073 0.61973089 151 180 224
-0.65652201 0.11625631 0.58478681 214 225 247
-0.62526841 0.11936543 0.53462005 188 202 229
-0.60611331 0.12139132 0.50447072 184 198 227
-0.77595503 0.11094218 0.80490084 71 57 44
-0.76505652 0.11148736 0.78477017 14 10 9
-0.74598429 0.11149515 0.74488238 205 216 238
-0.64546594 0.11769410 0.56497918 220 229 246
-0.75555162 0.11222764 0.76444422 42 33 17
-0.73664773 0.11219297 0.72480725 206 218 240
-0.72593137 0.11269331 0.70487684 211 226 249
-0.70642015 0.11286697 0.66498920 191 206 234
-0.68631144 0.11321338 0.62469772 140 181 233
-0.67606352 0.11555872 0.61475486 161 186 226
-0.66595764 0.11578160 0.59474410 178 201 233
-0.61532985 0.12106373 0.51483694 178 193 224
-0.60592964 0.12100151 0.49490729 193 203 228
-0.78552466 0.11043729 0.81417762 195 207 233
-0.65545044 0.11693221 0.57478151 225 234 251
-0.63626203 0.11892917 0.54449720 203 215 239
-0.79514461 0.10971121 0.82663232 191 205 231
-0.77514408 0.11174476 0.79486251 52 39 31
-0.72595441 0.11215356 0.69466664 170 188 224
-0.72583965 0.11015478 0.68482707 165 186 222
-0.62561868 0.12019447 0.52490944 186 199 231
-0.79586810 0.10980777 0.82459473 191 205 231
-0.76638261 0.11210081 0.77444112 68 48 41
-0.75611356 0.11246395 0.75489904 174 183 165
-0.74611649 0.11248963 0.73431245 207 218 240
-0.73608201 0.11273550 0.71469748 212 220 233
-0.71595532 0.11302918 0.67440437 201 213 237
-0.70587907 0.11331087 0.65487353 191 205 232
-0.67618497 0.11573840 0.60492860 165 189 227
-0.64511351 0.11868885 0.55462197 208 220 244
-0.78568163 0.11090124 0.80477385 196 207 233
-0.68558901 0.11508120 0.61771515 165 189 229
-0.66627393 0.11655369 0.58476521 189 209 236
-0.63516863 0.11959928 0.53488898 193 207 234
-0.69785061 0.11198989 0.62498534 164 192 231
-0.68500085 0.11546291 0.61478529 165 189 227
-0.65554832 0.11774895 0.56480066 231 240 255
-0.61633472 0.12211915 0.50446991 177 192 223
-0.77544776 0.11271882 0.78451039 75 64 59
-0.76666312 0.11238661 0.76490435 112 95 78
-0.75581692 0.11277566 0.74441481 44 40 40
-0.74645948 0.11273683 0.72499583 206 218 240
-0.73554262 0.11325397 0.70495688 196 210 236
-0.71653347 0.11304728 0.66491362 200 215 238
-0.70590956 0.11339655 0.64469609 175 198 232
-0.67526624 0.11614474 0.59447850 147 179 220
-0.62518010 0.12108693 0.51449302 178 193 224
-0.61507569 0.12128702 0.49464963 195 205 230
-0.79668816 0.11064180 0.81472125 200 212 238
-0.64527278 0.11939549 0.54457896 186 203 231
-0.70567470 0.11270278 0.63420846 176 197 226
-0.66533739 0.11779273 0.57498664 187 206 236
-0.63503022 0.12039112 0.52487720 182 195 227
-0.78696436 0.11229994 0.79498570 76 52 45
-0.76593016 0.11289769 0.75476884 96 106 108
-0.75522234 0.11333136 0.73488358 217 222 251
-0.74507779 0.11348720 0.71488566 201 215 241
-0.73654041 0.11289408 0.69476516 125 125 125
-0.73512908 0.11124184 0.68437739 189 204 233
-0.72588248 0.11330718 0.67488826 203 214 236
-0.70540015 0.11152811 0.62499855 172 195 229
-0.68564413 0.11597369 0.60487351 171 195 231
-0.79579453 0.11116079 0.80419118 209 220 242
-0.77569281 0.11369705 0.77469339 19 2 6
-0.71654768 0.11375236 0.65450598 201 215 241
-0.69746573 0.11354624 0.61472025 178 201 232
-0.69466416 0.11466490 0.61405912 172 194 231
-0.67511021 0.11702980 0.58490414 180 201 230
-0.65527839 0.11929157 0.55471832 227 238 255
-0.02793416 -0.29538417 0.54272609 113 92 73
-0.02706053 -0.29307628 0.54277772 117 96 77
-0.02378006 -0.29180150 0.54492614 95 74 55
-0.02006567 -0.28476548 0.54236483 116 96 72
-0.01023781 -0.28036695 0.54638014 125 102 79
-0.00520770 -0.27384649 0.54615585 133 107 84
-0.00809838 -0.27273737 0.54407964 131 109 86
-0.00312082 -0.27176082 0.54601224 135 109 86
-0.00996861 -0.25934150 0.68853576 157 134 109
0.00632468 -0.24525486 0.54939957 147 123 97
0.00724036 -0.24279476 0.54946537 153 129 103
-0.00695523 -0.25473208 0.68892496 151 127 103
-0.00362792 -0.25016227 0.68930813 146 122 96
0.01294113 -0.23368550 0.55203414 135 111 87
-0.00347328 -0.24481113 0.68978659 163 139 113
0.01842575 -0.22405564 0.55202695 127 103 79
0.01114724 -0.23181336 0.69083537 140 116 88
0.01698579 -0.22998340 0.68817262 168 144 117
0.03587661 -0.23016914 0.65694050 161 137 111
0.02957241 -0.21609938 0.55649302 147 123 99
0.02527664 -0.21490624 0.55448587 147 123 99
0.02407855 -0.21433052 0.55200313 168 144 120
0.02956750 -0.21335360 0.55671934 146 121 97
0.03511373 -0.20339655 0.55676223 144 120 96
0.03661315 -0.20333764 0.55382020 144 120 96
0.03098394 -0.21657014 0.69204391 188 164 138
0.03384740 -0.21433410 0.69222155 169 145 119
0.03741240 -0.21221774 0.69238289 160 137 111
0.04766631 -0.19453657 0.55573570 116 91 69
0.04681537 -0.20550851 0.69290948 171 147 121
0.04927693 -0.20311352 0.69310458 156 132 106
0.05599638 -0.18503877 0.55814505 138 114 88
0.05576178 -0.18466363 0.55541538 171 144 118
-0.38906715 -0.13942481 0.86807474 161 135 110
0.05611224 -0.19574754 0.69371047 151 127 101
0.05601665 -0.19320234 0.69683445 156 130 103
0.05993717 -0.17433566 0.55848568 173 149 123
0.06382157 -0.18295696 0.69771372 143 118 90
-0.42616468 -0.11774718 0.88117345 154 127 102
-0.42686831 -0.11681895 0.87420458 157 131 106
-0.42710783 -0.11549280 0.89145973 151 125 100
-0.43588309 -0.10729846 0.87433095 176 149 122
-0.43534927 -0.10849119 0.89814242 211 185 158
-0.44537994 -0.10056902 0.89737318 162 136 109
-0.44576323 -0.09628258 0.87431568 165 135 109
-0.44612965 -0.09820057 0.90579256 186 160 135
-0.44673232 -0.09075089 0.92671564 147 123 95
-0.45505201 -0.08862730 0.91539140 168 142 117
-0.45617534 -0.08519001 0.92873271 165 135 109
-0.45090273 -0.08523571 0.93928510 155 125 99
-0.45313776 -0.08474814 0.93673416 164 135 109
-0.45432950 -0.07489806 0.84801660 199 175 147
-0.45501936 -0.08308626 0.93784550 154 128 105
-0.45397330 -0.08236240 0.94512948 153 127 100
-0.45554915 -0.08092729 0.94801545 144 118 91
-0.46557011 -0.07735503 0.93749627 142 116 89
-0.40376322 -0.06403597 0.76785603 155 134 105
-0.46287945 -0.07633079 0.95546856 156 131 111
-0.46504983 -0.07588649 0.95287914 149 124 104
-0.46928430 -0.07483941 0.94615211 179 154 132
-0.47415373 -0.06384730 0.84745459 206 185 156
-0.46545970 -0.07462194 0.95618917 159 134 114
-0.48501126 -0.06653140 0.89416112 151 125 100
-0.47535011 -0.07119772 0.94557921 144 119 97
-0.48510816 -0.06652537 0.90832894 169 146 122
-0.48576592 -0.06611964 0.90496866 151 127 103
-0.48544730 -0.06582296 0.91620885 154 130 106
-0.47546149 -0.06913827 0.95562494 157 132 112
-0.48530176 -0.06533788 0.92587768 138 113 91
-0.48529984 -0.06500263 0.93712513 158 132 111
-0.49166311 -0.05491412 0.84552478 199 178 149
-0.48479341 -0.05439758 0.83658086 180 156 127
-0.47391012 -0.05403249 0.82669583 199 173 146
-0.48417426 -0.06478438 0.94892642 138 113 93
-0.47501434 -0.06575164 0.96779501 148 126 105
-0.48044512 -0.06483660 0.96203316 142 120 99
-0.49538227 -0.05917213 0.91622620 145 121 97
-0.47793409 -0.06407082 0.96824987 146 122 101
-0.48622060 -0.06237663 0.95636322 161 136 116
-0.48606752 -0.06035763 0.96640919 145 123 102
-0.50468323 -0.04444288 0.83593336 182 155 128
-0.49536400 -0.05613303 0.95922032 151 126 104
-0.49666512 -0.05484746 0.96193830 150 125 103
-0.48630577 -0.05540477 0.97829899 154 132 109
-0.48972378 -0.05493815 0.97500370 148 126 103
-0.49292415 -0.05449289 0.97183692 151 129 106
-0.49509410 -0.05413985 0.96919093 140 118 95
-0.51521480 -0.04652783 0.90233720 160 134 111
-0.51532595 -0.04646447 0.91582880 149 125 101
-0.51567127 -0.04628624 0.91420217 154 130 106
-0.48496207 -0.03468478 0.79013963 200 180 151
-0.51501617 -0.04612683 0.92658692 160 135 111
-0.49674632 -0.05015234 0.97525699 140 113 92
-0.51519340 -0.04559777 0.93569643 158 132 109
-0.48731290 -0.05003489 0.98661548 156 129 108
-0.50706083 -0.04738838 0.96562962 145 118 97
-0.52487655 -0.03400369 0.83788309 165 138 108
-0.50741266 -0.04489607 0.97046369 140 113 92
-0.48364748 -0.02487607 0.76593917 212 188 160
-0.49606030 -0.04515841 0.98587609 144 120 96
-0.50050388 -0.04468848 0.98198925 144 120 96
-0.49202501 -0.04424494 0.99137339 151 128 103
-0.49701575 -0.04374737 0.98715654 118 94 70
-0.50529774 -0.04271944 0.97812851 139 115 92
-0.51573012 -0.04126196 0.96512338 134 109 87
-0.49144686 -0.04308410 0.99509234 159 135 111
-0.52436743 -0.02436684 0.81072356 215 192 160
-0.53492950 -0.02458773 0.82800369 183 154 125
-0.50561157 -0.03903862 0.98634688 184 160 134
-0.49959918 -0.03852234 0.99608625 193 167 142
-0.51614043 -0.03666105 0.97787181 163 139 113
-0.52160373 -0.03477350 0.97366442 165 141 115
-0.52543964 -0.03412989 0.96714811 173 149 123
-0.51049062 -0.03495455 0.99053958 207 181 156
-0.51546077 -0.03439590 0.98474891 204 180 154
-0.50578022 -0.03417394 0.99801666 193 166 141
-0.51550642 -0.03323890 0.98799399 178 153 128
-0.52593757 -0.03086458 0.97796004 187 163 137
-0.53520982 -0.02708334 0.96741869 164 136 112
-0.54423233 -0.02493974 0.94393161 171 145 122
-0.51884328 -0.02817110 0.99613853 144 118 93
-0.52717157 -0.02726719 0.98537717 186 160 135
-0.54086483 -0.02493096 0.95879087 176 150 125
-0.54322636 -0.02443571 0.95323980 184 160 132
-0.43389724 0.00558177 0.65634900 157 134 103
-0.53529713 -0.02513478 0.97660739 192 166 139
-0.53652264 -0.02495219 0.97446128 192 166 139
-0.52496421 -0.00484092 0.76541685 196 171 141
